# .PCD v0.7 - Point Cloud Data file format
VERSION 0.7
FIELDS x y z
SIZE 4 4 4
TYPE F F F
COUNT 1 1 1
WIDTH 1516
HEIGHT 1
VIEWPOINT 0 0 0 1 0 0 0
POINTS 1516
DATA ascii
0.045118287 0.18221907 1.153
0.053572223 0.18093261 1.1530001
0.098047279 0.1809326 1.153
0.10411207 0.1809326 1.153
0.11455696 0.18126953 1.153
0.1251944 0.1815102 1.1530001
0.13443597 0.1809326 1.153
0.14454393 0.1809326 1.153
0.15551829 0.1815102 1.1530001
0.164086 0.18126953 1.153
0.17486782 0.1809326 1.153
0.18497579 0.1809326 1.153
0.19542071 0.18126953 1.153
0.20564097 0.18183108 1.153
0.21485044 0.18183109 1.153
0.22540765 0.1809326 1.153
0.23551564 0.1809326 1.153
0.24562359 0.1809326 1.153
0.25573155 0.1809326 1.153
0.26659763 0.18169069 1.153
0.27613807 0.18307972 1.1538
0.28470773 0.18228035 1.153
0.29380488 0.1824488 1.153
0.30467588 0.18250111 1.1533333
0.31446823 0.18200617 1.1533999
0.32475248 0.18227614 1.1533636
0.33496061 0.18316345 1.1543334
0.34531316 0.18298915 1.1541429
0.35485151 0.18298917 1.1541429
0.36472914 0.18244879 1.153
0.37499154 0.18253602 1.1542
0.38505468 0.18216416 1.1533333
0.3952215 0.18295418 1.1530001
0.40523425 0.18305078 1.1536154
0.41548365 0.18435924 1.1551175
0.42536134 0.18410827 1.1543334
0.43592095 0.1828846 1.1545384
0.44596434 0.18380241 1.154111
0.45538107 0.18361451 1.1541764
0.46470049 0.18284699 1.1533077
0.47458205 0.18227613 1.1533636
0.48541445 0.18293343 1.1548461
0.49457875 0.18344931 1.1551538
0.50410295 0.1837229 1.1546667
0.51416647 0.1844238 1.1548946
0.52381742 0.18491 1.1551332
0.53480017 0.18568805 1.1545384
0.54509598 0.18615754 1.1547776
0.55423701 0.18634668 1.1552498
0.56448829 0.18669787 1.1553333
0.5746547 0.18770602 1.1554615
0.58543444 0.18815221 1.1544545
0.59571368 0.18660755 1.1547776
0.60561997 0.18682326 1.1548822
0.61561835 0.18560302 1.1546363
0.62490809 0.18654354 1.1555713
0.63544452 0.18791246 1.1557692
0.64137787 0.18696992 1.1570001
0.57514334 0.19104058 1.153
0.58525127 0.19104058 1.1530001
0.59611732 0.19179869 1.153
0.60456872 0.19216366 1.153
0.61153197 0.19104058 1.153
0.62568313 0.19104058 1.153
0.63579112 0.19104058 1.153
-0.62411737 0.15884762 1.169
-0.57902521 0.15884762 1.169
-0.42632651 0.15884762 1.169
-0.41402861 0.15884762 1.169
-0.40500456 0.15745477 1.1677999
-0.39660662 0.15884762 1.169
-0.3822591 0.15884762 1.169
-0.37508535 0.15884762 1.169
-0.3681075 0.15819933 1.1680001
-0.35561371 0.15884762 1.169
-0.34510925 0.158079 1.169
-0.33440617 0.15781589 1.1681111
-0.32495394 0.15775549 1.1676667
-0.31462073 0.15884762 1.169
-0.6412915 0.16442434 1.1650001
-0.63421887 0.16574834 1.1645715
-0.62480217 0.16547918 1.1643046
-0.61582446 0.16491689 1.1636664
-0.60580736 0.1669026 1.1643045
-0.59564972 0.16711557 1.1663333
-0.58431405 0.16730724 1.1655
-0.57477379 0.16541168 1.1652857
-0.56492549 0.16650997 1.1652964
-0.55454695 0.16629426 1.1657276
-0.54468971 0.16679111 1.1644001
-0.53419161 0.16708051 1.164091
-0.52555096 0.16566871 1.1659094
-0.51577491 0.16591053 1.1648263
-0.50550729 0.16601212 1.1634616
-0.49559885 0.16648105 1.1645558
-0.485084 0.16631076 1.1645002
-0.47496796 0.1667379 1.1634765
-0.464605 0.16654973 1.1647779
-0.45473251 0.16580722 1.1642309
-0.44517839 0.16508836 1.1638147
-0.43495375 0.1635246 1.1639475
-0.42494255 0.16273385 1.1640589
-0.41481349 0.16401057 1.1633638
-0.40537277 0.16316546 1.1628947
-0.3952769 0.16313469 1.1637276
-0.38511857 0.16379309 1.1634002
-0.37534857 0.16362005 1.1627142
-0.36526594 0.16294992 1.1632
-0.35503352 0.16246653 1.1637501
-0.34402654 0.162328 1.1627501
-0.33480805 0.16356502 1.1626842
-0.32546765 0.16278718 1.1629999
-0.31458467 0.16262902 1.1628948
-0.30429664 0.16368923 1.1637274
-0.29429516 0.16421615 1.1640772
-0.28459311 0.16473085 1.1646523
-0.275424 0.1649458 1.1644075
-0.26484099 0.16485268 1.1646923
-0.25482762 0.16582423 1.1646669
-0.24449748 0.16623217 1.1644076
-0.23490229 0.16544417 1.1650003
-0.22523253 0.16594878 1.1644289
-0.21478714 0.16730155 1.1653812
-0.20463173 0.166621 1.164826
-0.19501679 0.16642216 1.1646802
-0.18513374 0.16673368 1.1656667
-0.17556992 0.16738336 1.1672857
-0.16477354 0.16681616 1.1674
-0.15422396 0.16686977 1.1660001
-0.14487457 0.16746455 1.1652354
-0.13533381 0.16713901 1.1674616
-0.12501955 0.16714673 1.1673334
-0.11601397 0.16736573 1.1676667
-0.10501996 0.16752852 1.1671817
-0.095316388 0.16747656 1.1668181
-0.085227408 0.16826227 1.1672858
-0.074391805 0.1669043 1.1670001
-0.065702565 0.16795714 1.169
-0.053603783 0.16865782 1.1683334
-0.044620581 0.16722469 1.1673999
-0.036294609 0.16713901 1.1674616
-0.024720123 0.16834493 1.1678572
-0.01534605 0.16778173 1.1670001
-0.0054786084 0.16888481 1.165
0.0062565752 0.16782857 1.1681112
0.015070275 0.16692272 1.1681429
0.024937369 0.16875425 1.1690001
0.034990396 0.16851024 1.1690001
0.044477332 0.16868594 1.169
0.054608446 0.16851026 1.1690001
0.06456387 0.16909586 1.169
0.07569053 0.16851024 1.1690001
0.08418192 0.16851024 1.1690001
0.095308565 0.16909586 1.169
0.10592946 0.16779153 1.1689999
0.11543036 0.16727254 1.1683846
0.12502845 0.16807103 1.169
0.13425186 0.16909586 1.169
0.14450008 0.16909586 1.169
0.15605436 0.16766514 1.1685556
0.16492268 0.16696908 1.1684667
0.17497042 0.16706862 1.1681428
0.18554175 0.16603096 1.1679475
0.19565241 0.16696908 1.1684668
0.20455472 0.16745614 1.169
0.21381539 0.16779153 1.1689999
0.22443633 0.16779153 1.1689999
0.23422906 0.16818489 1.169
0.2466408 0.16841263 1.1690001
0.25518104 0.16807103 1.169
0.26474604 0.16875426 1.1690001
0.2756775 0.16909586 1.169
0.28428599 0.16868594 1.169
0.29412431 0.16909586 1.169
0.30505577 0.16875425 1.1690001
0.31462076 0.16909586 1.169
0.3207697 0.16909584 1.169
0.33101794 0.16909584 1.169
0.38499197 0.16909584 1.169
0.39045769 0.16909584 1.169
0.43964919 0.16909584 1.169
0.44169885 0.16909584 1.169
0.49703932 0.16909584 1.169
0.50216341 0.16909584 1.169
-0.64020246 0.17200989 1.161
-0.63409561 0.17200989 1.1610001
-0.62697095 0.17200989 1.161
-0.60152572 0.17200989 1.161
-0.59486705 0.17190664 1.1628183
-0.58727324 0.17164738 1.1619999
-0.57811606 0.17200989 1.161
-0.56520545 0.17346458 1.1616668
-0.55467182 0.17164738 1.1620001
-0.52397978 0.17288293 1.1616156
-0.51528949 0.17386049 1.1610003
-0.50890499 0.17200989 1.161
-0.24223877 0.17200989 1.161
-0.23545337 0.17234915 1.1610001
-0.22900724 0.17200989 1.161
-0.20457982 0.17234915 1.1610001
-0.194741 0.17234915 1.1610001
-0.18422361 0.17200989 1.1610001
-0.17393611 0.17169271 1.163
-0.16512769 0.17226139 1.1627144
-0.15584873 0.17245823 1.1619233
-0.1453941 0.17267917 1.1614002
-0.13553299 0.17263256 1.1635
-0.12533441 0.17220511 1.1623334
-0.11519604 0.17228416 1.1628668
-0.10498316 0.17273083 1.1626474
-0.095167793 0.1727657 1.1628827
-0.084633924 0.17232363 1.1631335
-0.074075602 0.17280053 1.1631178
-0.064266689 0.17341223 1.1636001
-0.054700021 0.1722609 1.1637694
-0.045299772 0.17257319 1.1620669
-0.036018677 0.17266113 1.1621764
-0.025470851 0.17320377 1.1621999
-0.015507077 0.17314589 1.1628948
-0.0059964978 0.17252734 1.1614445
0.0059471605 0.17196403 1.1630001
0.015591822 0.17431141 1.165174
0.025536984 0.17466323 1.1651603
0.035741735 0.17461528 1.1648401
0.04515072 0.17462152 1.1642382
0.054315455 0.17336421 1.1643684
0.064342961 0.1736186 1.1650002
0.07444825 0.17345814 1.165
0.084937975 0.17336346 1.1643684
0.094966851 0.17358859 1.1648004
0.10512268 0.17350145 1.1642003
0.11513877 0.1737501 1.1642382
0.12536155 0.1737179 1.1645792
0.13532273 0.17361858 1.165
0.14516045 0.17351571 1.1639477
0.15497109 0.1729828 1.1630002
0.16474451 0.17290597 1.1638237
0.17476466 0.17228529 1.1638572
0.18464677 0.17240265 1.1636668
0.19511481 0.17290597 1.1638236
0.20527467 0.17405193 1.1634352
0.21476683 0.17376105 1.1636668
0.22514242 0.17253426 1.1635716
0.23490031 0.17259751 1.165
0.24477322 0.17259784 1.165
0.25465256 0.17287046 1.1642501
0.26513803 0.17409343 1.1644546
0.27518985 0.17448476 1.1645204
0.28485316 0.17458136 1.1646193
0.29452878 0.17456013 1.1650004
0.30444148 0.1737199 1.1640478
0.31455684 0.17277896 1.1644999
0.32540244 0.17457451 1.165174
0.33505011 0.17463312 1.1668184
0.34457344 0.17607799 1.1666844
0.35509261 0.17600857 1.1663337
0.3654671 0.17550296 1.1655718
0.37523675 0.17488389 1.1655003
0.38503298 0.17463841 1.1650003
0.3953023 0.17456816 1.1656669
0.40485343 0.17523991 1.1654212
0.41529304 0.17593385 1.1668003
0.42582873 0.1751167 1.1670803
0.43529317 0.17463471 1.1668185
0.44480047 0.17491084 1.1657695
0.45480588 0.17582254 1.1650002
0.46442458 0.17534262 1.1656003
0.47465253 0.17629951 1.1650001
0.48575187 0.17565778 1.1670002
0.49513042 0.17485625 1.1664404
0.50503469 0.17481479 1.166167
0.51498884 0.1750097 1.1663337
0.52502108 0.17588608 1.1668825
0.53498626 0.17643976 1.167353
0.54427153 0.17596452 1.1670002
0.55463558 0.17645325 1.1666472
0.56491423 0.17757452 1.1671817
0.57525861 0.17699517 1.1680769
0.58517414 0.17831926 1.169
0.59593391 0.17804617 1.1683333
0.60579735 0.17695326 1.1676668
0.61575055 0.17714566 1.1671335
0.62457198 0.1757881 1.1678237
0.63395572 0.17674787 1.169
0.64402819 0.17875849 1.1690001
0.33689511 0.18015239 1.161
0.34554648 0.18015237 1.161
0.35318005 0.18015237 1.161
0.41424868 0.18015237 1.1610001
0.42397442 0.18105711 1.1610001
0.43460488 0.18015237 1.1610001
0.44614005 0.18015239 1.161
0.45394325 0.18015237 1.161
0.48549539 0.18015237 1.1610001
0.49567348 0.18015237 1.1610001
0.50559711 0.18091574 1.1610001
0.51501185 0.18015237 1.161
0.52388132 0.1810248 1.1610001
0.53380299 0.18211354 1.1625386
0.5439114 0.18167347 1.1624546
0.55449563 0.18156064 1.1617274
0.56500411 0.18242674 1.1625386
0.57476979 0.18295978 1.1635002
0.5850063 0.1838294 1.1639472
0.59446049 0.182629 1.1638236
0.60624468 0.18216184 1.1628463
0.61488634 0.18096885 1.1618891
0.62495553 0.18161289 1.1616668
0.63393962 0.18299948 1.1637502
0.64316708 0.18303177 1.1643847
-0.37249303 0.14961632 1.177
-0.36836568 0.14961632 1.177
-0.64462441 0.15860702 1.1756668
-0.63422865 0.15903448 1.1747146
-0.62372267 0.15792602 1.1755
-0.61476022 0.15858775 1.1762002
-0.60581708 0.15761305 1.177
-0.59582835 0.15901752 1.177
-0.58465445 0.15796936 1.1762002
-0.57426971 0.15708466 1.1750002
-0.56468934 0.15757556 1.1756668
-0.55554086 0.15828373 1.177
-0.54584163 0.15959075 1.177
-0.53522843 0.15905027 1.177
-0.52527958 0.15847319 1.1759093
-0.51480436 0.15775454 1.1761431
-0.50512171 0.15838055 1.1760771
-0.49424979 0.15993468 1.177
-0.48496324 0.15993468 1.177
-0.47395694 0.1592468 1.177
-0.46523726 0.1578292 1.1766924
-0.45521006 0.15768984 1.1756669
-0.44488883 0.15802126 1.1757694
-0.43459669 0.15741469 1.1756669
-0.42451105 0.15665619 1.1751336
-0.41504508 0.15448016 1.1747779
-0.40462586 0.15425375 1.1752859
-0.39447567 0.1558868 1.175889
-0.38506228 0.1551566 1.1760001
-0.37504724 0.15436815 1.1756668
-0.36455905 0.15505904 1.1754348
-0.35522139 0.15564471 1.1748825
-0.34522638 0.15450975 1.1750001
-0.33470008 0.15403897 1.1753335
-0.32556364 0.15448852 1.1755457
-0.31494954 0.15644367 1.1753335
-0.30444515 0.15691291 1.1750002
-0.29511508 0.1578207 1.1754616
-0.28549498 0.15768984 1.1756667
-0.27531341 0.15782431 1.1755714
-0.26488161 0.15768984 1.1756669
-0.2550897 0.15820576 1.1756668
-0.24446221 0.15843575 1.1766001
-0.23464715 0.15768984 1.1756667
-0.22556311 0.15816966 1.1766667
-0.21565385 0.15890287 1.177
-0.20502165 0.15852261 1.1762729
-0.19501713 0.15890285 1.177
-0.1839249 0.15916081 1.177
-0.17506829 0.15959075 1.177
-0.16509387 0.15993468 1.177
-0.15890285 0.15993468 1.177
-0.14136162 0.15993468 1.177
-0.13517061 0.15993468 1.177
-0.12588407 0.15993468 1.177
-0.081515096 0.15993468 1.177
-0.074808158 0.15916081 1.177
-0.066037551 0.15993468 1.177
-0.042305302 0.15993468 1.177
-0.036114283 0.15993468 1.177
-0.027859591 0.15993468 1.177
0.0068789115 0.1592468 1.177
0.014652083 0.15952195 1.177
0.11453387 0.15993468 1.177
0.12485223 0.15993468 1.177
0.15890285 0.15993468 1.177
0.16509387 0.15993468 1.177
0.17025305 0.15993468 1.177
0.18573061 0.15993468 1.177
0.1939853 0.15993468 1.177
-0.64270627 0.16144781 1.1730001
-0.63767505 0.16199836 1.177
-0.61288464 0.16144781 1.1730001
-0.60568637 0.16247612 1.1730002
-0.59502482 0.16243272 1.1733639
-0.58691257 0.16331621 1.1735002
-0.57072318 0.16144781 1.1730001
-0.56455314 0.16144781 1.1730002
-0.55426985 0.16144781 1.1730002
-0.54594421 0.16275142 1.1750002
-0.53739846 0.16231689 1.1743335
-0.52444834 0.16144781 1.1730001
-0.51416498 0.16144781 1.1730001
-0.50491005 0.16144781 1.1730001
-0.49387598 0.16153958 1.1736668
-0.48372453 0.16158545 1.174
-0.47541523 0.16266775 1.1752224
-0.46635526 0.1624079 1.1735716
-0.45966351 0.16144781 1.1730001
-0.44321021 0.16144781 1.1730001
-0.2704508 0.16144781 1.1730001
-0.26016748 0.16144781 1.1730001
-0.25605416 0.16144781 1.1730001
-0.24628504 0.16144781 1.1730001
-0.22417594 0.16144781 1.1730001
-0.215378 0.16236189 1.1730002
-0.20587166 0.16185914 1.1730002
-0.19435437 0.16144781 1.1730002
-0.1844824 0.16185914 1.1730002
-0.1750754 0.16304159 1.1742309
-0.16535346 0.16283509 1.1747779
-0.1555426 0.16275142 1.1750002
-0.14484534 0.16300686 1.1748183
-0.13438848 0.16321971 1.1746669
-0.12503457 0.16305755 1.175182
-0.11424746 0.16371351 1.1755717
-0.10460839 0.16361426 1.1760771
-0.094965063 0.16382739 1.1753335
-0.085280627 0.16467807 1.1753532
-0.075558394 0.16300686 1.1748183
-0.064235665 0.1641327 1.1747501
-0.054825947 0.16469173 1.175316
-0.044822067 0.16331264 1.1753335
-0.03461045 0.16336913 1.1750001
-0.02609973 0.16449782 1.1752224
-0.015311361 0.16400778 1.1755717
-0.0048091984 0.1645292 1.1754445
0.0045055188 0.16416714 1.1750002
0.015815148 0.16309372 1.1740911
0.025958151 0.16457398 1.1744738
0.035021666 0.16481042 1.1750002
0.044289023 0.16541 1.1748668
0.054731794 0.16467808 1.1753532
0.064511567 0.16530599 1.1746473
0.074691944 0.16545916 1.1745386
0.086006738 0.16558945 1.1754616
0.095525235 0.16602865 1.1752859
0.10463037 0.16371676 1.1745386
0.11454456 0.16305755 1.175182
0.12468252 0.16383666 1.1754003
0.13467942 0.16602866 1.1752859
0.14575532 0.16635701 1.1750002
0.15494072 0.16441119 1.1746002
0.16516681 0.16265158 1.1734446
0.17536592 0.16300686 1.1748183
0.18383059 0.16188234 1.1736668
0.19481142 0.16236189 1.1730002
0.20544259 0.16321971 1.1746669
0.21563509 0.16367367 1.1752858
0.22488037 0.1638135 1.1740003
0.2353507 0.16393359 1.1742502
0.24465096 0.16540951 1.1748669
0.25493574 0.16472828 1.1752224
0.26482153 0.16507299 1.1754003
0.27518833 0.16593517 1.1756669
0.2850897 0.16629307 1.1755457
0.29511943 0.16695464 1.174778
0.30448079 0.1663267 1.1744547
0.31520376 0.16666539 1.1750002
0.32524836 0.16841687 1.1750001
0.33501649 0.16830222 1.175182
0.34468615 0.16884942 1.1752223
0.35503364 0.16893193 1.1750002
0.36482558 0.16813013 1.1755717
0.3747336 0.16795842 1.1754003
0.38559055 0.1677407 1.175182
0.39505357 0.1681623 1.1752224
0.40345016 0.16882588 1.1752858
0.41805297 0.16856065 1.1760001
0.42523205 0.1680893 1.1752859
0.43498677 0.16804847 1.1750002
0.44555387 0.16768222 1.1746669
0.45488372 0.16831352 1.1750001
0.46467748 0.16822217 1.1758001
0.47258121 0.16818938 1.177
0.48825777 0.16893192 1.1750001
0.49416748 0.16681942 1.1754445
0.50409043 0.16665454 1.175154
0.51523685 0.16836897 1.1746669
0.52553952 0.16810673 1.1764287
0.54525566 0.16858797 1.1750001
0.62529302 0.16818938 1.177
0.34674534 0.17182755 1.1736668
0.35482472 0.17130882 1.1741431
0.36505714 0.17173111 1.1730002
0.40791297 0.17099208 1.1750001
0.41458648 0.1710742 1.174778
0.4216153 0.17173111 1.1730001
0.45668355 0.17143551 1.1738001
0.46697527 0.17143551 1.1738001
0.47587803 0.17148645 1.175182
0.48400789 0.17156757 1.1744547
0.52589065 0.17117685 1.1745002
0.53529823 0.17150685 1.1750002
0.54460257 0.17123842 1.1743335
0.55442196 0.17209536 1.1755002
0.56485158 0.17373455 1.175182
0.57442409 0.17273094 1.1748825
0.58509409 0.17323482 1.1745002
0.5959034 0.1745477 1.1746669
0.60548156 0.17325792 1.1750001
0.61557603 0.1726402 1.1750002
0.6238519 0.17124625 1.1748183
0.63470167 0.17156757 1.1744547
0.64543074 0.17471252 1.1752859
0.65188324 0.17591 1.1762002
-0.64573997 0.149057 1.189
-0.63687992 0.149057 1.189
-0.62332928 0.149057 1.189
-0.61499047 0.1483621 1.1890001
-0.60492337 0.14862597 1.1883334
-0.59548354 0.14846139 1.189
-0.58319855 0.14853582 1.189
-0.57334703 0.14819494 1.1876668
-0.56561607 0.1489567 1.1882001
-0.55766082 0.149057 1.189
-0.54411018 0.149057 1.189
-0.53416044 0.14754087 1.1890001
-0.52465284 0.14731976 1.1890001
-0.51546967 0.14772247 1.1878573
-0.50464958 0.14846139 1.189
-0.49477202 0.1469723 1.1890001
-0.48599002 0.14796451 1.1886001
-0.47322181 0.14772247 1.1878573
-0.4643158 0.14755546 1.1870002
-0.45552087 0.14718865 1.1874001
-0.44520369 0.14627644 1.1855
-0.43496928 0.1477645 1.1870003
-0.42393598 0.14628454 1.1876669
-0.41484478 0.14611349 1.18525
-0.40537292 0.14594467 1.1863333
-0.39500037 0.1463996 1.1865001
-0.38491121 0.14642727 1.1859232
-0.37462842 0.14534442 1.1852223
-0.36505014 0.14531359 1.1844283
-0.35513771 0.14564919 1.1854209
-0.34567255 0.14702354 1.1868464
-0.33481944 0.1471108 1.1873335
-0.32460952 0.14586367 1.1867999
-0.31486741 0.14702839 1.1866668
-0.30429173 0.14720212 1.186667
-0.29467595 0.14616452 1.18775
-0.2860041 0.14759362 1.1879092
-0.27518216 0.14801465 1.189
-0.26626423 0.14813048 1.189
-0.25850445 0.149057 1.189
-0.24443264 0.149057 1.189
-0.23431505 0.14702505 1.1879092
-0.22530539 0.14785187 1.1867778
-0.21576785 0.14905702 1.189
-0.20742898 0.149057 1.189
-0.19283599 0.149057 1.189
-0.18866655 0.149057 1.189
-0.086515605 0.149057 1.189
-0.078176752 0.149057 1.189
0.099023886 0.149057 1.189
0.10215096 0.149057 1.189
0.19700541 0.149057 1.189
-0.65297687 0.15348461 1.187
-0.64444053 0.15409993 1.1839473
-0.63481754 0.15390013 1.1838001
-0.62397677 0.15360211 1.1821111
-0.61523408 0.15303099 1.1813078
-0.6051237 0.15233353 1.1810001
-0.59512806 0.15338667 1.1818695
-0.58516079 0.15295269 1.1831177
-0.57456779 0.15181562 1.1824548
-0.5646469 0.15252547 1.1824286
-0.55497146 0.15330808 1.1837369
-0.54531646 0.15439165 1.1833332
-0.53497171 0.15382396 1.1824
-0.52519524 0.15319836 1.1834445
-0.51473099 0.15277955 1.1823335
-0.50418562 0.15369168 1.1824738
-0.4953365 0.15426335 1.1831818
-0.4855333 0.15451305 1.1829197
-0.47568163 0.15413457 1.1824
-0.4650777 0.15226327 1.1815335
-0.45451576 0.15219548 1.1810001
-0.44452772 0.15268268 1.181
-0.43539304 0.15209967 1.1817273
-0.42610741 0.15158117 1.1820909
-0.41517267 0.15012479 1.1810001
-0.40404272 0.15090129 1.1810001
-0.39469591 0.15104508 1.1810001
-0.38514772 0.15012479 1.1810001
-0.3763473 0.15012479 1.1810001
-0.36444086 0.15012479 1.1810001
-0.35482699 0.15071641 1.1810002
-0.34430915 0.15104508 1.1810001
-0.33471173 0.15071641 1.1810002
-0.32429254 0.15173531 1.1810001
-0.31578511 0.15212019 1.1815716
-0.3054263 0.15167779 1.181
-0.29507285 0.15219547 1.1810001
-0.28497568 0.15233105 1.1820667
-0.27488959 0.15274206 1.1832498
-0.26481733 0.1523391 1.1832857
-0.25504532 0.15336865 1.1847777
-0.24562037 0.15359245 1.1833527
-0.23528968 0.15236542 1.1823334
-0.22443753 0.1527724 1.181706
-0.21482244 0.15358883 1.1837999
-0.20499785 0.15348357 1.1856666
-0.19491415 0.15384762 1.1858
-0.18551344 0.15456291 1.1849998
-0.17491506 0.15621221 1.1850001
-0.16506635 0.15571634 1.1842
-0.15486702 0.1559006 1.1855999
-0.14455277 0.1551466 1.1853999
-0.13521595 0.15532422 1.1848179
-0.12535749 0.15628061 1.1852351
-0.11527413 0.15576892 1.1846
-0.10522961 0.15610988 1.1845554
-0.09433382 0.15601385 1.1852105
-0.08488258 0.15448388 1.184238
-0.075737193 0.15418816 1.1834762
-0.065235257 0.15486768 1.1843333
-0.055059053 0.1558222 1.1850001
-0.044864636 0.15518931 1.1853478
-0.034621906 0.15613931 1.1847776
-0.024922758 0.15575606 1.1845001
-0.015574902 0.15549918 1.1844283
-0.0052866191 0.1552764 1.1844544
0.0048462134 0.15538789 1.1843333
0.015814386 0.15582204 1.1850001
0.024954751 0.15595548 1.186
0.034083094 0.15607034 1.1856315
0.044700708 0.15592673 1.1857998
0.055058349 0.15582256 1.1849999
0.065276466 0.15609857 1.1858419
0.075816877 0.15670492 1.1867499
0.084876604 0.15546885 1.1860527
0.094662696 0.15502065 1.1854999
0.1045618 0.15569285 1.1855999
0.11529187 0.15595883 1.1847894
0.1253386 0.15505263 1.1849997
0.1346802 0.15493986 1.1853999
0.14436664 0.15607183 1.1856316
0.15498552 0.15557513 1.1849999
0.1647671 0.15522954 1.1840909
0.17507023 0.15602385 1.1847777
0.18500623 0.15534827 1.1849999
0.19468504 0.15484835 1.1848259
0.2051568 0.15506645 1.1857271
0.21489787 0.15497652 1.1851666
0.22475643 0.15686572 1.1861429
0.23516567 0.15683705 1.1866471
0.24508601 0.15690747 1.1865386
0.25504643 0.15676947 1.1862501
0.26558942 0.15656105 1.1864119
0.27540138 0.15542391 1.1862726
0.28442279 0.1560102 1.1868823
0.29500762 0.15808395 1.1872222
0.30500022 0.1582236 1.1874002
0.31478053 0.15825596 1.1867778
0.32427269 0.15814355 1.1876668
0.33370307 0.15888494 1.189
0.34455439 0.1582236 1.1874002
0.35496601 0.1582236 1.1874001
0.36472014 0.15825596 1.1867778
0.37461546 0.15816996 1.1870002
0.38502148 0.15816996 1.1870002
0.39533392 0.15823701 1.1875001
0.40497941 0.15795884 1.1875455
0.41528001 0.15849443 1.1885556
0.42456442 0.15816997 1.187
0.43480185 0.15820317 1.1881112
0.44497105 0.15828909 1.1871821
0.45455533 0.1583572 1.1872858
0.46407238 0.1583572 1.1872858
0.47516572 0.15888494 1.189
0.48499164 0.15853937 1.1882001
0.49565783 0.15827724 1.1878002
0.50569516 0.15780665 1.1874002
0.51492542 0.1583752 1.1876667
0.5243054 0.15906362 1.189
0.53306121 0.15864669 1.189
0.54445767 0.15878567 1.189
0.62332928 0.15948057 1.189
-0.48143464 0.16047822 1.1810001
-0.15323082 0.16047822 1.1810001
-0.1459834 0.16047822 1.1810001
-0.12458631 0.16047822 1.1810001
-0.11492311 0.16047822 1.1810001
-0.10456967 0.16047822 1.1810001
-0.09421625 0.16047822 1.1810001
-0.086451165 0.1609959 1.1810001
-0.061085258 0.16047822 1.1810001
-0.054873195 0.16047822 1.1810001
-0.047625795 0.16047822 1.1810001
-0.032095645 0.16047822 1.1810001
-0.024503125 0.16047822 1.1810001
-0.015875265 0.16082335 1.1810002
-0.0051767165 0.16047822 1.1810001
0.0010353433 0.16047822 1.1810001
0.015530149 0.16047822 1.1810001
0.024848239 0.16047822 1.1810001
0.035053771 0.16106986 1.1810002
0.044749841 0.16139853 1.1810001
0.054182973 0.16082335 1.1810002
0.066032507 0.16132267 1.1815002
0.075630561 0.16162227 1.1818
0.084898144 0.16151357 1.1810001
0.094216242 0.16151357 1.1810001
0.10387945 0.16082335 1.1810002
0.1149231 0.16047822 1.1810001
0.12527655 0.16047822 1.1810001
0.13600647 0.16179593 1.181
0.14470938 0.16241007 1.1813637
0.15254059 0.16116846 1.1810002
0.17600837 0.16047822 1.1810001
0.18118508 0.16047822 1.1810001
0.19982126 0.16047822 1.1810001
0.20499799 0.16047822 1.1810001
0.21431606 0.16047822 1.1810001
0.22535972 0.16082335 1.1810002
0.23502295 0.16047822 1.1810001
0.24589404 0.16125472 1.1810001
0.25572982 0.16151355 1.1810001
0.26573813 0.16116846 1.1810002
0.27436596 0.16151357 1.1810001
0.28539962 0.16212183 1.1816666
0.29506159 0.16285209 1.182143
0.30520165 0.16259512 1.1824287
0.31571546 0.16259511 1.1824287
0.32544988 0.16343467 1.1827501
0.33481511 0.16354305 1.1832223
0.34491867 0.1639201 1.1822633
0.35524148 0.16406506 1.1827143
0.36495492 0.16297761 1.18225
0.37533781 0.16278234 1.1827145
0.38497269 0.16324465 1.1832498
0.39546037 0.16329315 1.1828824
0.40473202 0.1640244 1.1828822
0.41460782 0.16459537 1.1833334
0.42481345 0.16298474 1.1824118
0.43543246 0.16296959 1.183
0.44526687 0.16311522 1.18325
0.45512578 0.16336629 1.18225
0.46470144 0.16342071 1.1823335
0.47536337 0.16430843 1.1823332
0.48522305 0.16467498 1.1826665
0.49427557 0.16199422 1.1824546
0.50472242 0.16209076 1.1822001
0.51444334 0.16362177 1.1824737
0.52523011 0.16374253 1.183
0.53568143 0.16484955 1.1833636
0.54504651 0.16479582 1.1838
0.55556279 0.1657171 1.1847779
0.56492895 0.16597028 1.1854706
0.57427126 0.1661922 1.1855452
0.58486915 0.16621076 1.1849998
0.59524041 0.16625196 1.1861111
0.60607868 0.16690181 1.1856314
0.61541051 0.16558744 1.1849999
0.62416279 0.16476063 1.184652
0.63482505 0.16533242 1.184818
0.64487606 0.16654061 1.1855
0.65518922 0.16662332 1.187
0.5570147 0.17083165 1.1810001
0.56591862 0.1712458 1.1810001
0.57358015 0.17083165 1.1810001
0.58911037 0.17083165 1.1810001
0.5960989 0.17160816 1.1810001
0.60567582 0.17083167 1.1810001
0.61499393 0.17083165 1.1810001
0.64501894 0.17083167 1.1810001
0.65371579 0.17165993 1.1810001
-0.66005373 0.13851684 1.197
-0.65480691 0.13956621 1.197
-0.54252428 0.13956621 1.197
-0.53517872 0.13956621 1.197
-0.51524067 0.13956621 1.197
-0.50369757 0.13956621 1.197
-0.49425325 0.13956621 1.197
-0.48480892 0.13956621 1.197
-0.47431523 0.13956621 1.197
-0.4648709 0.13956621 1.197
-0.45402741 0.13921642 1.197
-0.44430324 0.13914648 1.197
-0.43526685 0.13678247 1.1967503
-0.42568174 0.13801867 1.195182
-0.41540989 0.13847022 1.1966001
-0.40490484 0.13795507 1.1962729
-0.39543626 0.13740529 1.196467
-0.38556314 0.1374869 1.1956667
-0.37504503 0.13828366 1.1950001
-0.36502063 0.13762295 1.1953335
-0.35557655 0.13740529 1.1964669
-0.34524271 0.13863344 1.1970001
-0.33474904 0.13779035 1.1970003
-0.3243582 0.138478 1.1956669
-0.31411141 0.13886665 1.197
-0.30536669 0.13896656 1.197
-0.29487297 0.13851686 1.1970001
-0.2843793 0.13851684 1.1970001
-0.27478504 0.13866675 1.197
-0.26584044 0.13799216 1.1970003
-0.25569651 0.13921642 1.197
-0.24450321 0.13956621 1.197
-0.23820698 0.13956621 1.197
-0.20462716 0.13956621 1.197
-0.19623218 0.13956621 1.197
-0.66005373 0.14166495 1.197
-0.65524191 0.14533035 1.1944739
-0.64575136 0.1453262 1.1952003
-0.63474023 0.1462245 1.1952225
-0.62422973 0.14558141 1.1947144
-0.61453456 0.14514883 1.1946
-0.6055305 0.14539717 1.1944287
-0.59463751 0.14528783 1.1946001
-0.58497739 0.14542444 1.1945001
-0.57557517 0.14514883 1.1946001
-0.56573886 0.1446698 1.1944737
-0.55511874 0.14629027 1.1951056
-0.54489201 0.14436901 1.1948825
-0.53478479 0.14328328 1.193
-0.52523249 0.14330623 1.1946669
-0.51519126 0.14412253 1.1948825
-0.50532871 0.14422852 1.193706
-0.49472222 0.14231448 1.1944546
-0.48450494 0.14436902 1.1948825
-0.47550377 0.14378548 1.1947143
-0.46536636 0.14330296 1.1944287
-0.45517641 0.14303209 1.1940908
-0.44365525 0.14244658 1.193
-0.4350791 0.14328328 1.193
-0.42650303 0.14244656 1.193
-0.41550657 0.14178918 1.1930001
-0.40422618 0.14197594 1.193
-0.39382565 0.14212118 1.193
-0.38487768 0.1422374 1.193
-0.37713835 0.14160989 1.1930001
-0.36448336 0.14119154 1.1930001
-0.35365126 0.14178918 1.1930001
-0.34506267 0.14300695 1.1941999
-0.33624506 0.14276035 1.193
-0.32456625 0.14154017 1.1930001
-0.31428194 0.14276034 1.193
-0.30486917 0.14276034 1.193
-0.29528207 0.14188878 1.1930001
-0.28474689 0.14359373 1.1932667
-0.27518409 0.1433464 1.1935335
-0.2644414 0.14388727 1.1939412
-0.25511417 0.14514707 1.1946001
-0.245574 0.14469089 1.1939526
-0.23551475 0.14340162 1.1940001
-0.22542909 0.1443454 1.1951538
-0.21433185 0.14565884 1.1953532
-0.20466737 0.14510408 1.194905
-0.19558771 0.14568782 1.1948186
-0.18549021 0.14629285 1.1954004
-0.17565747 0.14782441 1.1959091
-0.16436978 0.14723264 1.1951178
-0.15449312 0.14645733 1.1952224
-0.14512525 0.14686835 1.1947781
-0.13557862 0.14729075 1.1955884
-0.12468172 0.1477281 1.1951336
-0.11446073 0.14752673 1.1947143
-0.10569707 0.14763361 1.1959094
-0.094204731 0.14706884 1.1958574
-0.085081384 0.14616324 1.1952003
-0.074409507 0.14776884 1.1954618
-0.064695694 0.1479696 1.1955454
-0.055364281 0.14827691 1.1953335
-0.045433842 0.14766091 1.1960001
-0.034999002 0.14715239 1.1966366
-0.02514397 0.1477116 1.1950001
-0.015714249 0.14666283 1.1950001
-0.0055876779 0.14703989 1.1952225
0.0054886034 0.14731985 1.1958238
0.013368948 0.14731111 1.1960001
0.025184881 0.14796117 1.197
0.032530472 0.14796117 1.197
0.04617228 0.14796117 1.197
0.055264693 0.14841753 1.1958573
0.06569057 0.14754143 1.197
0.075412065 0.14748842 1.196273
0.08530245 0.14782441 1.1959091
0.095078893 0.14763267 1.1955715
0.1055191 0.14674583 1.1956668
0.11452104 0.14664057 1.1961583
0.12473594 0.14779402 1.1956669
0.13521795 0.14779404 1.1956669
0.14477615 0.14763363 1.1959091
0.15429933 0.14752257 1.1960771
0.16400509 0.14697899 1.1960591
0.17537628 0.14766799 1.1958574
0.18576266 0.14691947 1.1957371
0.19484988 0.14744596 1.1954616
0.20475881 0.1481604 1.1955457
0.21488124 0.14779404 1.1956669
0.22405018 0.14784974 1.1961112
0.23575847 0.14726159 1.197
0.24240446 0.14796117 1.197
0.258145 0.14796117 1.197
0.26549062 0.14796117 1.197
0.27575201 0.14731112 1.1960001
0.28299722 0.14700311 1.1963334
-0.65575629 0.15165018 1.1930001
-0.64529765 0.15165018 1.1930001
-0.18198022 0.15165018 1.1930001
-0.17548655 0.15176162 1.1938889
-0.16420053 0.15165018 1.1930001
-0.15478776 0.15165018 1.1930001
-0.14746673 0.15165018 1.1930001
-0.13282464 0.15165018 1.1930001
-0.12445774 0.1519988 1.1930001
-0.11504497 0.15165018 1.1930001
-0.10431407 0.15176162 1.1938889
-0.096563295 0.15151408 1.194
-0.070072845 0.15165018 1.1930001
-0.055430759 0.15165018 1.1930001
-0.042952284 0.15085503 1.1950001
-0.033603508 0.15145221 1.1944546
-0.025100721 0.15165018 1.1930001
-0.01568795 0.15165018 1.1930001
-0.0045320746 0.15165018 1.1930001
0.0052293167 0.15165018 1.1930001
0.016417529 0.15146551 1.1952224
0.025163842 0.15098217 1.1960001
0.034969356 0.15120995 1.1955454
0.045047518 0.15085505 1.1950001
0.055762798 0.15105383 1.1945
0.064952239 0.15085505 1.1949999
0.073202707 0.15183318 1.1944546
0.083762579 0.1511201 1.1943334
0.093081839 0.15165018 1.1930001
0.10743549 0.15208238 1.1936667
0.11525414 0.15206854 1.1930001
0.12027428 0.15165018 1.1930001
0.13491637 0.15165018 1.1930001
0.14602067 0.15151408 1.194
0.15510145 0.15133213 1.1938
0.16787496 0.1511201 1.1943334
0.17405722 0.15138513 1.1936668
0.18372333 0.15165018 1.1930001
0.1997599 0.15165018 1.1930001
0.20394334 0.15165018 1.1930001
0.2263481 0.15187939 1.1948181
0.23513782 0.15184359 1.1945386
0.24514206 0.15190193 1.1950001
0.25492904 0.15178883 1.1952857
0.26494467 0.15152127 1.1945385
0.27238035 0.15085503 1.1950001
0.2874271 0.15216491 1.1947143
0.29542005 0.15362154 1.1955714
0.30511159 0.15307742 1.1960003
0.31480917 0.15323953 1.1958237
0.32411733 0.15357959 1.1955884
0.33553013 0.15472357 1.1952225
0.34558773 0.15327027 1.1960591
0.35532004 0.15302584 1.1956004
0.36484233 0.15311824 1.1948825
0.37477177 0.15305166 1.1958002
0.38506803 0.15293236 1.1961582
0.39489898 0.15407258 1.1955884
0.40507668 0.15417221 1.1950002
0.41524515 0.15333264 1.1955884
0.42487556 0.15320909 1.1957371
0.43494841 0.15359522 1.1951337
0.44453344 0.15413855 1.1948462
0.45450488 0.1544333 1.1951334
0.46501836 0.15563998 1.1959091
0.47462985 0.15579048 1.195154
0.48478553 0.15466146 1.1951538
0.49381179 0.15433966 1.1951538
0.50494951 0.15504551 1.1949999
0.51655108 0.15459293 1.1951818
0.52588171 0.15468334 1.1952502
0.53419495 0.15502794 1.1943334
0.5442878 0.15542741 1.1948462
0.55564141 0.15688081 1.1970003
0.56643206 0.15696117 1.1966925
0.57511145 0.15617964 1.1956668
0.58425534 0.15550292 1.1965002
0.59442043 0.15692854 1.1970001
0.60548651 0.15845488 1.197
0.61563045 0.1577553 1.197
0.62467611 0.15669201 1.1950002
0.63515806 0.15616703 1.1955717
0.64473295 0.15677588 1.1970001
0.65375751 0.15793018 1.197
0.66267717 0.15793018 1.197
0.53861964 0.16001709 1.1930001
0.54419756 0.1600171 1.1930001
0.55576485 0.16106597 1.1938889
0.56576645 0.16106597 1.1938889
0.5756731 0.16091354 1.1930001
0.58417279 0.16117914 1.193
0.59464759 0.16122389 1.1942
0.60552859 0.16199334 1.1945386
0.61443377 0.16093563 1.194
0.62019694 0.16001709 1.1930001
0.63483906 0.1603657 1.1930001
0.64679134 0.16190578 1.1946
0.65559638 0.16195941 1.1950001
0.66170853 0.1612844 1.1962
-0.66288519 0.13629468 1.2052001
-0.65654743 0.13783129 1.2054287
-0.64457619 0.13850108 1.2060001
-0.63541323 0.13850106 1.2060002
-0.62448823 0.13814865 1.2060002
-0.61849707 0.13850106 1.2060001
-0.58043575 0.13850106 1.2060001
-0.57514942 0.13850106 1.2060001
-0.56880587 0.13850106 1.2060001
-0.55294698 0.13779622 1.2060001
-0.54514319 0.13672376 1.2043335
-0.53578711 0.13799551 1.2046669
-0.52545828 0.13807817 1.2060002
-0.51460385 0.13634123 1.2042859
-0.50450277 0.13592215 1.2042499
-0.49535736 0.13688722 1.2042223
-0.48543614 0.1365705 1.2047694
-0.47471166 0.13689582 1.2047694
-0.46428093 0.13609549 1.2050003
-0.45565453 0.13595521 1.2050772
-0.44575775 0.13548024 1.2030909
-0.43486613 0.13272865 1.2040001
-0.42536682 0.13475433 1.2034546
-0.4149864 0.13515966 1.2045002
-0.40534279 0.13273044 1.2038462
-0.39509982 0.13212082 1.2044002
-0.38416731 0.13379717 1.2033334
-0.3754068 0.134047 1.204
-0.36495253 0.13285242 1.2043335
-0.35518345 0.13310781 1.2041819
-0.34526494 0.13451351 1.2044001
-0.33455369 0.13334054 1.2045456
-0.32481268 0.13523607 1.2044618
-0.31506687 0.13491023 1.2044617
-0.3054888 0.13581604 1.2038462
-0.2953178 0.13455991 1.2048001
-0.28476614 0.1343171 1.2037143
-0.27513427 0.13457447 1.2040002
-0.26527536 0.13441101 1.2038183
-0.25446022 0.13683715 1.2044001
-0.24558575 0.13675442 1.2041819
-0.23821312 0.13785759 1.205
-0.21356651 0.13797243 1.2060001
-0.20509537 0.13626814 1.2035385
-0.19614628 0.13651104 1.204
-0.18713503 0.13850108 1.2060001
-0.15471238 0.13850108 1.2060001
-0.094096139 0.13850106 1.2060001
-0.08880984 0.13850106 1.2060001
-0.0052863001 0.13850106 1.2060001
0.0052863001 0.13850106 1.2060001
0.012687121 0.13850106 1.2060001
0.026431501 0.13850108 1.2060001
0.066607378 0.13850108 1.2060001
0.11524134 0.13850106 1.2060002
0.1215849 0.13850106 1.2060001
0.14801639 0.13850106 1.2060001
0.15541723 0.13850106 1.2060002
0.16556691 0.13807815 1.2060002
0.17444789 0.13850106 1.2060002
0.18502049 0.13850106 1.2060002
0.19432439 0.13807817 1.2060002
0.22519638 0.13850106 1.2060001
0.23153993 0.13850106 1.2060001
-0.65124583 0.14090925 1.204
-0.64526933 0.14116262 1.2046669
-0.63560486 0.14170232 1.2038183
-0.62465167 0.1413895 1.2036002
-0.61430311 0.14143614 1.2040002
-0.60496187 0.14125229 1.2037144
-0.59576494 0.14134496 1.2042223
-0.5852282 0.14152731 1.2037779
-0.57556456 0.14105609 1.2030001
-0.56473351 0.14100716 1.2033335
-0.55600172 0.14113767 1.2024444
-0.54900551 0.14014919 1.202
-0.53109169 0.14014919 1.202
-0.52476919 0.14014919 1.202
-0.51212412 0.14014919 1.202
-0.4850778 0.14014921 1.202
-0.46681273 0.14014919 1.202
-0.23431897 0.14038238 1.204
-0.22448364 0.14155449 1.2050002
-0.21552099 0.14111903 1.2025715
-0.1917831 0.14014919 1.202
-0.18430004 0.14170298 1.2038183
-0.17435697 0.14310087 1.2044002
-0.16516288 0.1423208 1.2041819
-0.15515947 0.14143614 1.204
-0.14460441 0.14143613 1.2040002
-0.13383758 0.14298727 1.2042223
-0.12497094 0.14333571 1.204
-0.11490588 0.14305858 1.2043333
-0.10369632 0.14332113 1.204154
-0.095355026 0.14197512 1.2032001
-0.084712304 0.14142367 1.2028888
-0.075074352 0.1432483 1.2035384
-0.064387083 0.14407463 1.204
-0.055182666 0.14385608 1.2041819
-0.045414839 0.14406545 1.2048001
-0.034304261 0.14301912 1.2040001
-0.024572469 0.14230657 1.2037143
-0.014770518 0.14137784 1.2035
-0.0047494876 0.14196363 1.204
0.0049542459 0.14222112 1.2044617
0.014947752 0.14385781 1.2036667
0.024273323 0.14394356 1.2038001
0.034822218 0.14456315 1.2036842
0.045113925 0.14483564 1.2037499
0.055175394 0.14396396 1.2037143
0.064134821 0.14331663 1.2034736
0.074630842 0.14266589 1.2032501
0.08532837 0.14309108 1.2035
0.094942987 0.14241217 1.2033335
0.1041031 0.14207599 1.2032309
0.1148591 0.14120296 1.202
0.12518498 0.1425072 1.202857
0.13464645 0.14227398 1.2035385
0.14455591 0.14244375 1.2036002
0.15496907 0.1423189 1.2025332
0.16596614 0.14172983 1.2019999
0.17492305 0.14225671 1.2019999
0.18387996 0.14172983 1.2019999
0.19548169 0.14196837 1.2023076
0.20547408 0.14328994 1.2034116
0.21477887 0.1422381 1.2032309
0.22504105 0.14288977 1.2031764
0.23489679 0.14311506 1.2033333
0.24539044 0.14475057 1.2031763
0.25502387 0.14533345 1.2030666
0.26493219 0.14354539 1.204
0.27445126 0.14272487 1.2034286
0.28571856 0.14338554 1.2034546
0.29502195 0.14633174 1.2035384
0.30493903 0.14560837 1.2035998
0.314953 0.14581069 1.2033333
0.32456768 0.14598139 1.2041177
0.33593869 0.14709416 1.2056669
0.34509301 0.14563237 1.2037998
0.35437557 0.14684811 1.2036667
0.3657935 0.14714448 1.2035385
0.37528288 0.14596045 1.2036
0.38468358 0.14675954 1.2031428
0.39512202 0.14638799 1.2034999
0.40537652 0.14720054 1.2036667
0.4156847 0.1472276 1.2024446
0.42450076 0.14690684 1.2029232
0.43452331 0.14749917 1.2046669
0.44450235 0.14846952 1.2060002
0.4557009 0.14713234 1.2047695
0.4648096 0.14683554 1.2050002
0.47391698 0.14740539 1.2053336
0.48448944 0.14828071 1.2060002
0.49479771 0.14907366 1.2060001
0.50510597 0.14828072 1.2060002
0.51397943 0.14846952 1.2060002
0.52545822 0.14828071 1.2060002
0.53430241 0.14744425 1.2042223
0.54378408 0.14872125 1.2060002
0.55580842 0.14899126 1.2053335
0.56568319 0.14855187 1.2052001
0.57388031 0.14795554 1.2042859
0.58453745 0.14798066 1.2040002
0.59548789 0.14784399 1.2055557
0.60369551 0.14907366 1.2060001
0.61532533 0.14907366 1.2060001
0.65761572 0.14907366 1.2060001
0.29505092 0.15068673 1.202
0.3277173 0.15068673 1.202
0.33509356 0.15068673 1.202
0.34246987 0.15068673 1.202
0.39726502 0.15068673 1.202
0.40569505 0.15103799 1.2020001
0.4130713 0.15068673 1.202
0.43520012 0.15068673 1.202
0.44573766 0.15068673 1.202
0.45522144 0.15068673 1.202
0.4647052 0.15174048 1.202
0.47524276 0.15174048 1.202
0.48517814 0.15128887 1.2020001
0.49589631 0.15110824 1.202
0.50465351 0.151969 1.202889
0.5150854 0.15199119 1.2040002
0.52406114 0.15078703 1.2028002
0.53425294 0.15068673 1.202
0.54497105 0.15179062 1.2024001
0.55583274 0.15248477 1.2023332
0.56509912 0.15260264 1.2019999
0.57429558 0.15174048 1.202
0.5839299 0.15128887 1.2020001
0.59520859 0.15247001 1.2019999
0.60504556 0.15415904 1.2027999
0.61409783 0.15381357 1.2030525
0.62456214 0.15282278 1.2034287
0.63517833 0.15208042 1.2037779
0.6452623 0.15231462 1.2037778
0.65439445 0.15360817 1.2028888
0.66383147 0.15393348 1.2031763
-0.41624177 0.11862089 1.2190001
-0.67111635 0.12396418 1.2190001
-0.66520101 0.12616546 1.2162224
-0.6543079 0.12653844 1.2168125
-0.64427793 0.12654243 1.2178235
-0.6348418 0.12703753 1.21775
-0.62475479 0.12604919 1.2168946
-0.61561948 0.12853609 1.2184445
-0.60440171 0.12839147 1.2190001
-0.59554708 0.12839147 1.2190001
-0.58344698 0.12831797 1.2154288
-0.57482249 0.12797362 1.2165
-0.56543922 0.12770538 1.2178462
-0.55456179 0.12797362 1.2165
-0.54496139 0.1279736 1.2164999
-0.53466719 0.12674372 1.2176667
-0.52470028 0.12637225 1.2165
-0.51419538 0.1266333 1.2139091
-0.50517106 0.12543827 1.2150952
-0.49544129 0.12625571 1.2159445
-0.48526248 0.12681949 1.2156667
-0.47567087 0.12681948 1.2156668
-0.46483317 0.1259217 1.2156844
-0.45480663 0.12698436 1.2157857
-0.44490129 0.12696062 1.217
-0.43512073 0.12525068 1.2152385
-0.42483175 0.12480089 1.2150419
-0.41482913 0.12431465 1.2140474
-0.40558049 0.12490296 1.2136501
-0.39498839 0.12517232 1.2135241
-0.38539627 0.12508254 1.2136189
-0.37550625 0.12616791 1.2142354
-0.36471689 0.12508506 1.2156191
-0.3548995 0.12549733 1.21425
-0.34517688 0.12595193 1.2145882
-0.33485812 0.12574443 1.2156111
-0.32471868 0.12581491 1.2139999
-0.31575593 0.12670773 1.2146153
-0.30491474 0.12709436 1.2151538
-0.29484531 0.1269471 1.2154287
-0.2854234 0.12641159 1.2161429
-0.2755208 0.12717426 1.216143
-0.26493552 0.12709042 1.2166922
-0.25497919 0.12695405 1.2155001
-0.24497135 0.12823969 1.217889
-0.23423353 0.12850663 1.2181667
-0.22513083 0.12729496 1.2170769
-0.21552885 0.12760839 1.2176363
-0.20518208 0.12930745 1.2190001
-0.19556418 0.12930745 1.2190001
-0.1848776 0.12930745 1.2190001
-0.16136716 0.12930745 1.2190001
-0.15709254 0.12930745 1.2190001
-0.11434627 0.12930745 1.2190001
-0.10686567 0.12930745 1.2190001
-0.0010686567 0.12930745 1.2190001
0.0032059702 0.12930745 1.2190001
0.055570148 0.1282388 1.219
0.065188058 0.12930745 1.2190001
0.072668657 0.12930745 1.2190001
0.085136317 0.12930745 1.2190001
0.095110439 0.12930745 1.2190001
0.10472836 0.12930745 1.2190001
0.11648358 0.12930745 1.2190001
0.12503283 0.12930745 1.2190001
0.13785671 0.12930745 1.2190001
0.14512357 0.12887999 1.2190001
0.1528179 0.12930745 1.2190001
0.1998388 0.12930745 1.2190001
0.20518208 0.12930745 1.2190001
0.2148 0.12930745 1.2190001
0.22477412 0.12930745 1.2190001
0.23546068 0.12930745 1.2190001
0.24258506 0.12930745 1.2190001
0.26502687 0.12930745 1.2190001
0.27037013 0.12930745 1.2190001
-0.66351426 0.13227817 1.2103335
-0.65399694 0.13383102 1.2111427
-0.64513505 0.13417323 1.2118826
-0.63538527 0.13387401 1.2120003
-0.6243242 0.13362567 1.2112632
-0.61492854 0.1347473 1.2120456
-0.60554004 0.13513026 1.2120873
-0.59520644 0.13496929 1.2115002
-0.58492953 0.13460293 1.2107273
-0.57509369 0.13371944 1.2121054
-0.56520581 0.13485226 1.2128336
-0.55531639 0.13371359 1.2117498
-0.5448662 0.1326724 1.2123334
-0.53527552 0.13371797 1.212105
-0.52527326 0.13360532 1.2107499
-0.51494336 0.1314172 1.21
-0.5045191 0.13146515 1.2104446
-0.49522808 0.13272855 1.2112309
-0.48441681 0.13206546 1.21
-0.47516876 0.13221467 1.2104001
-0.46631297 0.13174723 1.21
-0.45462522 0.13147783 1.2103637
-0.44518512 0.13150677 1.211143
-0.43491435 0.1304743 1.21
-0.42451882 0.13174723 1.21
-0.41523123 0.13141721 1.21
-0.40627363 0.1304743 1.21
-0.39354444 0.1304743 1.21
-0.38505831 0.13047431 1.21
-0.37414756 0.13108048 1.21
-0.36490375 0.1304743 1.21
-0.35429609 0.1304743 1.21
-0.34545633 0.1308279 1.21
-0.33520228 0.1304743 1.21
-0.32518393 0.13141723 1.21
-0.31504771 0.13108046 1.21
-0.30464062 0.13162135 1.2108001
-0.29489315 0.13118148 1.21
-0.28595239 0.13108046 1.21
-0.27544576 0.1308279 1.21
-0.26473704 0.13138354 1.21
-0.25594789 0.13244431 1.21
-0.24502009 0.13243587 1.2115386
-0.23452306 0.13455683 1.2119131
-0.22477095 0.13464597 1.2120003
-0.21557255 0.13415475 1.2113332
-0.20506637 0.13175073 1.2120001
-0.19437231 0.13282411 1.2136154
-0.18506512 0.1345268 1.2129045
-0.17528179 0.13522147 1.2130001
-0.16502726 0.13488585 1.2131667
-0.15471959 0.13435788 1.2131907
-0.14536518 0.1357885 1.2130001
-0.13498062 0.13532734 1.2139583
-0.12487617 0.13486336 1.2138696
-0.11525156 0.13524577 1.2121818
-0.1053302 0.13511743 1.2136401
-0.095232747 0.13544962 1.2145
-0.084947988 0.13534112 1.2146112
-0.07558018 0.13681801 1.214294
-0.064721167 0.13597271 1.2140478
-0.054782074 0.13540512 1.2145002
-0.045011465 0.13640861 1.2140001
-0.035003703 0.13542885 1.2131306
-0.024466194 0.13508824 1.2134002
-0.014895312 0.13511561 1.2136501
-0.0053210012 0.13494967 1.2137499
0.0053193578 0.13492687 1.2135415
0.015141155 0.13471439 1.2142777
0.02410426 0.13566424 1.2140589
0.035147689 0.13648324 1.2148421
0.044974796 0.13570443 1.2168947
0.054298773 0.13522027 1.21456
0.064611532 0.13453567 1.2136364
0.075209692 0.13546225 1.2142612
0.08476451 0.13503599 1.2155454
0.094798341 0.1352663 1.2149999
0.10506683 0.1355295 1.2148695
0.11479152 0.13419436 1.2154212
0.12506837 0.1347432 1.2146366
0.13529631 0.13528825 1.2152001
0.1448227 0.13502735 1.2138001
0.1542602 0.13404353 1.2135555
0.16452135 0.13483496 1.2149335
0.1756845 0.13450871 1.2145556
0.18522374 0.13412255 1.2142779
0.19503243 0.13376336 1.2142221
0.2051366 0.13527408 1.2134585
0.21529679 0.13530059 1.2144785
0.22492614 0.13422622 1.2142502
0.23515865 0.13508633 1.2142857
0.24460873 0.13503598 1.2155453
0.25510618 0.13558578 1.2163846
0.26513442 0.13522424 1.2146088
0.2753076 0.13538252 1.2152501
0.28536296 0.13613996 1.2157896
0.29488075 0.1360126 1.2166315
0.30517012 0.1364128 1.2161429
0.31498685 0.13505688 1.2157272
0.32446516 0.13590391 1.2161429
0.33484185 0.13655092 1.2174209
0.34487718 0.13640915 1.2171578
0.35418877 0.13761818 1.2169166
0.36488047 0.13810341 1.2186667
0.37505579 0.13715166 1.2172353
0.3846252 0.13784221 1.2171818
0.39443719 0.13772352 1.2165
0.40494138 0.13746576 1.2155626
0.41549471 0.13667206 1.2168125
0.42533347 0.13788863 1.2178462
0.43453088 0.13772421 1.2178462
0.44545171 0.13839105 1.219
0.45553923 0.13805102 1.219
0.46466774 0.13781086 1.2174375
0.47546315 0.13780431 1.2172142
0.48528105 0.13761023 1.2185454
0.49465215 0.13781844 1.2186668
0.5051136 0.1375621 1.2175294
0.51488298 0.13684867 1.2176667
0.52470386 0.13698478 1.217611
0.5341686 0.13869068 1.2182858
0.54572731 0.1392816 1.2190001
0.55477506 0.13796838 1.2186428
0.56505221 0.13919254 1.219
0.57493734 0.13892537 1.219
0.58408028 0.13904412 1.219
0.59524179 0.13999403 1.2190001
0.61875218 0.13999403 1.2190001
0.62516421 0.13963781 1.2190001
0.63371336 0.13999403 1.2190001
0.64333129 0.13999403 1.2190001
0.67645967 0.13999403 1.2190001
-0.2259433 0.14108196 1.21
-0.17502651 0.14108196 1.21
-0.13524775 0.14108196 1.21
-0.12552406 0.14108196 1.21
-0.11633074 0.14108196 1.21
-0.10713743 0.14108196 1.21
-0.073192894 0.14108196 1.21
-0.064706765 0.14108196 1.21
-0.054099105 0.14108196 1.21
-0.045612969 0.14143555 1.21
-0.037126835 0.14108196 1.21
0.016972266 0.14108196 1.21
0.020154567 0.14108196 1.21
0.037126835 0.14108196 1.21
0.045612969 0.14108196 1.21
0.053038333 0.14108196 1.21
0.0859221 0.14108196 1.21
0.24857299 0.14178914 1.21
0.25493759 0.14143555 1.21
0.28746778 0.14108196 1.21
0.29534778 0.14199118 1.21
0.30373287 0.14143555 1.21
0.31504771 0.14108196 1.21
0.32600898 0.14178914 1.21
0.33483645 0.1428369 1.2118183
0.34422964 0.14151329 1.2106668
0.35632777 0.14284801 1.2115
0.36448899 0.14312932 1.212154
0.37380803 0.14193583 1.2105001
0.38486898 0.14236423 1.210889
0.39486402 0.14202385 1.2108001
0.40604004 0.14291911 1.2112001
0.41484749 0.14348832 1.211143
0.42542484 0.14264405 1.2118182
0.4353351 0.14304426 1.2116667
0.44496012 0.1441613 1.2121333
0.45412782 0.1434852 1.2124001
0.46538201 0.14237593 1.2120001
0.4758395 0.1428369 1.2118182
0.48497951 0.14378266 1.2121538
0.49499547 0.14458434 1.212286
0.50503784 0.14389499 1.2125001
0.5152356 0.1441613 1.2121333
0.52437156 0.14395125 1.2121178
0.53485662 0.14385055 1.2129285
0.54519534 0.14420347 1.2128749
0.55469215 0.14453162 1.2127368
0.56557482 0.14456798 1.2139999
0.5746972 0.14401963 1.2141539
0.5841251 0.14435461 1.2134118
0.59521854 0.14374313 1.2146001
0.60615641 0.14497145 1.2140001
0.61477971 0.14513204 1.2140527
0.62474763 0.1458035 1.2140435
0.63490129 0.14546658 1.2158949
0.64475542 0.14574735 1.2151306
0.65432459 0.1470412 1.214375
0.66523594 0.14687197 1.2145882
0.67292136 0.1451478 1.2167692
0.63803536 0.15046932 1.2130001
0.64175683 0.15006255 1.2140001
-0.67229378 0.11939937 1.2270001
-0.66476405 0.11832371 1.2270001
-0.65567076 0.117764 1.2262728
-0.6464777 0.11939937 1.2270001
-0.63399988 0.11896911 1.2270001
-0.62475914 0.11828478 1.2266002
-0.61574429 0.11847737 1.2270001
-0.6056022 0.11939937 1.2270001
-0.59457654 0.11859262 1.2270001
-0.58480597 0.11832371 1.2270002
-0.57476634 0.11939937 1.2270001
-0.54213768 0.11939937 1.2270001
-0.53460801 0.11832371 1.2270001
-0.52514112 0.11835672 1.2261111
-0.51443917 0.11859261 1.2270001
-0.50444269 0.11731829 1.2261431
-0.4948082 0.11832371 1.2270001
-0.48464909 0.11844323 1.2270001
-0.47419125 0.11742732 1.2270002
-0.46496651 0.11806965 1.2266002
-0.45464987 0.11778586 1.2270002
-0.44452158 0.1167679 1.2254617
-0.43554693 0.11698316 1.2258574
-0.42499378 0.11592755 1.2251176
-0.41516143 0.11607761 1.225154
-0.40539399 0.11828478 1.2266001
-0.39428475 0.11628417 1.2259336
-0.38546607 0.11647873 1.2255883
-0.37579998 0.11803033 1.2270002
-0.36449412 0.11676588 1.2264668
-0.35553822 0.11679181 1.2267334
-0.34557763 0.11799494 1.2266365
-0.33453336 0.11844323 1.2270001
-0.32437494 0.11792191 1.2265557
-0.3151713 0.11832371 1.2270001
-0.30402344 0.11803035 1.2270002
-0.29498181 0.11691707 1.2270002
-0.28634337 0.11789344 1.2270001
-0.27501297 0.11868226 1.2270002
-0.2659753 0.11835673 1.2261113
-0.25600946 0.11939937 1.2270001
-0.24417709 0.11939937 1.2270001
-0.6722464 0.12115446 1.223
-0.66428179 0.12207345 1.2230002
-0.65533 0.12234574 1.223
-0.64435065 0.12204533 1.2247778
-0.63541269 0.1223587 1.2243335
-0.6236282 0.12215151 1.2234445
-0.61454427 0.12434613 1.2246469
-0.6050871 0.12370824 1.2256668
