# .PCD v0.7 - Point Cloud Data file format
VERSION 0.7
FIELDS x y z
SIZE 4 4 4
TYPE F F F
COUNT 1 1 1
WIDTH 125
HEIGHT 1
VIEWPOINT 0 0 0 1 0 0 0
POINTS 125
DATA ascii
-0.02549812 -0.093974568 1.3360771
-0.016755626 -0.094535775 1.3371176
-0.0063340925 -0.091257848 1.3380002
-0.02594013 -0.085438721 1.337375
-0.015226824 -0.084596694 1.3358572
-0.0074288733 -0.085236549 1.3380002
-0.02228662 -0.078589663 1.3380001
-0.014410896 -0.076076135 1.3380001
-0.0082108602 -0.077416681 1.3380001
-0.050852802 -0.098157734 1.3490001
-0.044466637 -0.096029006 1.3490001
-0.035364293 -0.09429428 1.3445003
-0.029434083 -0.097721159 1.3430001
-0.01153816 -0.095837377 1.3430001
-0.003960222 -0.095366426 1.3430003
0.0047094529 -0.094189078 1.3430003
0.012958887 -0.094260082 1.3440002
-0.042337917 -0.086804546 1.3490001
-0.035394866 -0.08493486 1.3456253
-0.024724631 -0.082415432 1.3430001
-0.0030611444 -0.084299214 1.3430003
0.0047156992 -0.084838867 1.3441253
0.012950997 -0.084770165 1.3430003
-0.046122309 -0.079235762 1.3490001
-0.034296077 -0.076870516 1.3490001
-0.025159163 -0.075069278 1.3450003
-0.014520815 -0.071819171 1.3430002
-0.004206372 -0.075060703 1.3438574
0.0047298358 -0.075644486 1.3482503
0.012775186 -0.075917184 1.3473638
-0.024393784 -0.065260634 1.3471744
-0.014133095 -0.064783387 1.3436003
-0.0049370257 -0.065860815 1.3486474
0.0011826233 -0.069774777 1.3490001
-0.0227655 -0.056470267 1.3490001
-0.014154334 -0.054261614 1.3456253
-0.0082783634 -0.054400671 1.3490001
-0.043919247 -0.091399513 1.3540001
-0.043127909 -0.082694799 1.3540001
-0.043806966 -0.074535891 1.3557858
-0.036825262 -0.072459131 1.3550001
0.0059452616 -0.070119604 1.3556669
0.01068306 -0.070033394 1.3540001
-0.046464209 -0.067909233 1.3590001
-0.034258284 -0.065470926 1.3578889
-0.029675167 -0.061724346 1.3540001
-0.0035610199 -0.060537338 1.3540001
0.0035727089 -0.066636026 1.3573335
0.011913899 -0.066717841 1.3590001
-0.032167532 -0.058378108 1.3590001
-0.025697205 -0.053531896 1.3570002
-0.0040949099 -0.055638034 1.3567779
-0.02025363 -0.047655597 1.3590001
-0.014672381 -0.047179569 1.3567779
-0.0083243884 -0.047565743 1.3565001
-0.043797392 -0.066773072 1.365
-0.037495032 -0.063422456 1.365
0.00550459 -0.063183121 1.3649999
0.011727171 -0.062943794 1.365
-0.03422419 -0.05672121 1.365
-0.029916249 -0.052652597 1.365
-0.0023932999 -0.052652597 1.365
0.0035899503 -0.057439201 1.365
0.011966499 -0.055045899 1.3649999
-0.023824215 -0.045799058 1.3649999
-0.013846951 -0.042908452 1.365
-0.0059832502 -0.047267675 1.365
-0.01555645 -0.039489448 1.3650001
-0.045124542 -0.062625319 1.3700001
-0.039634101 -0.061252698 1.3700001
-0.044817749 -0.056210272 1.3749094
-0.037266754 -0.054092795 1.3712
-0.0012010334 -0.051644433 1.3700001
0.0055247541 -0.053806301 1.37
-0.033052631 -0.046378233 1.3727694
-0.026823079 -0.042836856 1.3700002
-0.0036052042 -0.044475056 1.3712
0.0048093935 -0.045685295 1.3715003
0.012023483 -0.045685291 1.3715
-0.03076048 -0.03799824 1.376
-0.024068797 -0.034892302 1.3727003
-0.014208809 -0.034007244 1.3710591
-0.0060222619 -0.039161138 1.3745
0.0012062934 -0.039807681 1.376
-0.023321671 -0.026940551 1.3760002
-0.014676454 -0.024300151 1.3724004
-0.015178256 -0.016619496 1.3736001
-0.047216386 -0.052059095 1.381
-0.052285276 -0.048637465 1.3870001
-0.045580063 -0.045192216 1.3854214
-0.038459368 -0.044211395 1.3817501
-0.041515552 -0.035262164 1.3870002
-0.034537923 -0.034047339 1.3838003
-0.0045462842 -0.034078229 1.3821253
0.0050424482 -0.034904849 1.3832109
0.010907924 -0.036355805 1.3825001
-0.033010155 -0.024906537 1.386
-0.024730941 -0.022545414 1.3828001
-0.010896089 -0.020581502 1.381
-0.004846652 -0.024252325 1.3832502
0.0028371855 -0.026345296 1.3870001
-0.030398417 -0.018239049 1.3870001
-0.023797618 -0.017196817 1.3870002
-0.014038565 -0.015071779 1.3835717
-0.0052608764 -0.016601438 1.3856667
-0.050033119 -0.040270559 1.3920001
-0.04759248 -0.040270559 1.3920001
-0.050248779 -0.036767401 1.3980001
-0.045739792 -0.033250213 1.3933334
0.0122032 -0.030508 1.3920001
-0.041744117 -0.025672561 1.3945717
-0.037219759 -0.02257592 1.3920001
0.0058386 -0.023480641 1.3933334
0.01098288 -0.02806736 1.3920001
-0.033326045 -0.015895721 1.3950001
-0.024813173 -0.012609973 1.3920001
-0.004647736 -0.0124662 1.3944001
0.0028553035 -0.016711898 1.3950002
-0.04492566 -0.024616798 1.404
0.0086158803 -0.020924279 1.404
-0.050769959 -0.032193393 1.4125001
-0.047219023 -0.02299146 1.4100001
-0.053680055 -0.032455076 1.424
-0.053519621 -0.08484818 1.4890001
-0.055498779 -0.094079837 1.5072001
