# .PCD v0.7 - Point Cloud Data file format
VERSION 0.7
FIELDS x y z
SIZE 4 4 4
TYPE F F F
COUNT 1 1 1
WIDTH 1389
HEIGHT 1
VIEWPOINT 0 0 0 1 0 0 0
POINTS 1389
DATA ascii
-0.039532725 0.16756937 0.97800004
-0.038814146 0.16756937 0.97800004
-0.037978705 0.16705535 0.97500002
-0.037185892 0.16671267 0.97300005
-0.036470987 0.16671267 0.97300005
-0.035756078 0.16671267 0.97300005
-0.035221238 0.16756937 0.97800004
-0.034608491 0.16808338 0.98100007
-0.033991337 0.1685974 0.98400003
-0.033166919 0.16808338 0.98100007
-0.032644581 0.16911142 0.98700005
-0.031919386 0.16911142 0.98700005
-0.031099379 0.1685974 0.98400003
-0.030283777 0.16808338 0.98100007
-0.029562991 0.16808338 0.98100007
-0.028842205 0.16808338 0.98100007
-0.028035423 0.16756937 0.97800004
-0.02731684 0.16756937 0.97800004
-0.026516668 0.16705535 0.97500002
-0.02574737 0.16671267 0.97300005
-0.020615103 0.16568464 0.96700007
-0.019904604 0.16568464 0.96700007
-0.019313199 0.16671267 0.97300005
-0.018598292 0.16671267 0.97300005
-0.017920144 0.16705535 0.97500002
-0.017203767 0.16705535 0.97500002
-0.016487388 0.16705535 0.97500002
-0.015771011 0.16705535 0.97500002
-0.015023753 0.16671267 0.97300005
-0.014264728 0.16619866 0.97000003
-0.01362188 0.16705535 0.97500002
-0.01287903 0.16671267 0.97300005
-0.012089113 0.16568464 0.96700007
-0.011378612 0.16568464 0.96700007
-0.010579856 0.16431393 0.95900005
-0.0073216534 0.17048213 0.99500006
-0.0065905815 0.17048213 0.99500006
-0.0058241757 0.1694541 0.98900002
-0.0050717411 0.1685974 0.98400003
-0.0043222341 0.16756937 0.97800004
-0.0036036526 0.16756937 0.97800004
-0.0028850711 0.16756937 0.97800004
-0.0021664896 0.16756937 0.97800004
-0.0014479083 0.16756937 0.97800004
-0.00072932686 0.16756937 0.97800004
-1.0712428e-05 0.16705535 0.97500002
0.0007056648 0.16705535 0.97500002
0.0014264175 0.16756937 0.97800004
0.0021581585 0.1685974 0.98400003
0.0028635806 0.16756937 0.97800004
0.0035711739 0.16705535 0.97500002
0.0042875512 0.16705535 0.97500002
0.0050039282 0.16705535 0.97500002
0.0057379063 0.16756937 0.97800004
0.0064564873 0.16756937 0.97800004
0.0071970783 0.16808338 0.98100007
0.0078936508 0.16756937 0.97800004
0.031348296 0.16619866 0.97000003
0.032060999 0.16619866 0.97000003
0.032773703 0.16619866 0.97000003
0.033659019 0.16705535 0.97500002
0.034199111 0.16619866 0.97000003
0.035523672 0.16911142 0.98700005
0.036138684 0.1685974 0.98400003
0.036974061 0.16911142 0.98700005
0.037699252 0.16911142 0.98700005
0.038190864 0.16808338 0.98100007
0.038475331 0.16619866 0.97000003
0.039188035 0.16619866 0.97000003
0.039900739 0.16619866 0.97000003
0.040739048 0.16671267 0.97300005
0.041453958 0.16671267 0.97300005
0.042775612 0.16911142 0.98700005
0.042751554 0.16619866 0.97000003
0.043598682 0.16671267 0.97300005
0.044404678 0.16705535 0.97500002
0.045259885 0.16756937 0.97800004
0.045978468 0.16756937 0.97800004
0.04669705 0.16756937 0.97800004
0.047270186 0.16705535 0.97500002
0.047986563 0.16705535 0.97500002
0.04870294 0.16705535 0.97500002
0.049571376 0.16756937 0.97800004
0.050289955 0.16756937 0.97800004
0.051321477 0.1685974 0.98400003
0.052467588 0.16996811 0.99200004
0.053518213 0.17099614 0.99800003
0.054251488 0.17099614 0.99800003
0.054378718 0.16911142 0.98700005
0.05538306 0.16996811 0.99200004
0.056111928 0.16996811 0.99200004
0.056554303 0.16911142 0.98700005
0.056467023 0.16671267 0.97300005
0.058004692 0.16911142 0.98700005
0.058372863 0.16808338 0.98100007
0.059274364 0.1685974 0.98400003
0.060302217 0.1694541 0.98900002
0.060905468 0.16911142 0.98700005
0.061630663 0.16911142 0.98700005
0.062355857 0.16911142 0.98700005
0.063208871 0.1694541 0.98900002
0.063935533 0.1694541 0.98900002
0.06481462 0.16431393 0.95900005
0.06661237 0.16705535 0.97500002
0.067328751 0.16705535 0.97500002
0.068045124 0.16705535 0.97500002
0.068761505 0.16705535 0.97500002
0.069477879 0.16705535 0.97500002
0.070410237 0.16756937 0.97800004
0.071128815 0.16756937 0.97800004
0.072288185 0.1685974 0.98400003
0.073011175 0.1685974 0.98400003
0.073958963 0.16911142 0.98700005
0.075062491 0.16996811 0.99200004
0.075791359 0.16996811 0.99200004
0.076520227 0.16996811 0.99200004
0.077249095 0.16996811 0.99200004
0.077977963 0.16996811 0.99200004
0.078706831 0.16996811 0.99200004
0.07919547 0.1694541 0.98900002
0.079518087 0.1685974 0.98400003
0.079996429 0.16808338 0.98100007
0.080717221 0.16808338 0.98100007
0.081438005 0.16808338 0.98100007
0.082158789 0.16808338 0.98100007
0.083133034 0.1685974 0.98400003
0.083856024 0.1685974 0.98400003
0.084579013 0.1685974 0.98400003
0.08599551 0.16996811 0.99200004
0.08646211 0.1694541 0.98900002
0.088642098 0.1694541 0.98900002
0.089368768 0.1694541 0.98900002
0.090368718 0.16996811 0.99200004
0.091373086 0.17048213 0.99500006
0.092104159 0.17048213 0.99500006
0.093115136 0.17099614 0.99800003
0.094130524 0.17151016 1.001
0.094866 0.17151016 1.001
0.095601484 0.17151016 1.001
0.096048243 0.17099614 0.99800003
0.096781515 0.17099614 0.99800003
0.096928537 0.16996811 0.99200004
0.097362056 0.1694541 0.98900002
0.097592823 0.1685974 0.98400003
0.09831582 0.1685974 0.98400003
0.09903881 0.1685974 0.98400003
0.099761799 0.1685974 0.98400003
-0.084124185 0.16419786 0.95400006
-0.083860472 0.16505845 0.95900005
-0.083155848 0.16505845 0.95900005
-0.0821933 0.16454211 0.95600003
-0.081490882 0.16454211 0.95600003
-0.080788463 0.16454211 0.95600003
-0.081510171 0.16746806 0.97300005
-0.080795258 0.16746806 0.97300005
-0.080080353 0.16746806 0.97300005
-0.079365447 0.16746806 0.97300005
-0.078650542 0.16746806 0.97300005
-0.077935629 0.16746806 0.97300005
-0.076347724 0.16557479 0.96200007
-0.075640902 0.16557479 0.96200007
-0.074934073 0.16557479 0.96200007
-0.073764294 0.16454211 0.95600003
-0.073061876 0.16454211 0.95600003
-0.072359458 0.16454211 0.95600003
-0.072106771 0.16557479 0.96200007
-0.071771048 0.16643538 0.96700007
-0.071648434 0.16781229 0.97500002
-0.070932053 0.16781229 0.97500002
-0.07021568 0.16781229 0.97500002
-0.06935674 0.16746806 0.97300005
-0.068641834 0.16746806 0.97300005
-0.067508057 0.16643538 0.96700007
-0.066797554 0.16643538 0.96700007
-0.065540321 0.16505845 0.95900005
-0.065038517 0.16557479 0.96200007
-0.064331688 0.16557479 0.96200007
-0.063757144 0.16591902 0.96400005
-0.063441269 0.16695172 0.97000003
-0.062728569 0.16695172 0.97000003
-0.061824061 0.16643538 0.96700007
-0.061303161 0.16695172 0.97000003
-0.060902774 0.16781229 0.97500002
-0.060186397 0.16781229 0.97500002
-0.05947002 0.16781229 0.97500002
-0.058633123 0.16746806 0.97300005
-0.057382487 0.16591902 0.96400005
-0.057203308 0.16746806 0.97300005
-0.056488398 0.16746806 0.97300005
-0.055601534 0.16695172 0.97000003
-0.05488883 0.16695172 0.97000003
-0.054176126 0.16695172 0.97000003
-0.053463422 0.16695172 0.97000003
-0.052913859 0.16746806 0.97300005
-0.052198954 0.16746806 0.97300005
-0.051166572 0.16643538 0.96700007
-0.05019518 0.16557479 0.96200007
-0.049591243 0.16591902 0.96400005
-0.048882946 0.16591902 0.96400005
-0.048174653 0.16591902 0.96400005
-0.047466356 0.16591902 0.96400005
-0.047873657 0.16987768 0.98700005
-0.047148466 0.16987768 0.98700005
-0.046282168 0.16936132 0.98400003
-0.045559179 0.16936132 0.98400003
-0.044836186 0.16936132 0.98400003
-0.044113196 0.16936132 0.98400003
-0.043390207 0.16936132 0.98400003
-0.042667218 0.16936132 0.98400003
-0.04156059 0.16781229 0.97500002
-0.040760431 0.16746806 0.97300005
-0.040127836 0.16781229 0.97500002
-0.039330617 0.16746806 0.97300005
-0.038615707 0.16746806 0.97300005
-0.037783943 0.16695172 0.97000003
-0.037071239 0.16695172 0.97000003
-0.036246087 0.16643538 0.96700007
-0.035535589 0.16643538 0.96700007
-0.034933127 0.16695172 0.97000003
-0.034220424 0.16695172 0.97000003
-0.033024106 0.16454211 0.95600003
-0.03225407 0.16419786 0.95400006
-0.031354673 0.16316518 0.94800007
-0.031725347 0.16884498 0.98100007
-0.031004563 0.16884498 0.98100007
-0.030191166 0.16832863 0.97800004
-0.029472586 0.16832863 0.97800004
-0.028754003 0.16832863 0.97800004
-0.027949423 0.16781229 0.97500002
-0.027233046 0.16781229 0.97500002
-0.026462277 0.16746806 0.97300005
-0.02574737 0.16746806 0.97300005
-0.019739931 0.16505845 0.95900005
-0.019134557 0.16591902 0.96400005
-0.018388033 0.16557479 0.96200007
-0.017883385 0.16746806 0.97300005
-0.017168477 0.16746806 0.97300005
-0.01645357 0.16746806 0.97300005
-0.015690135 0.16695172 0.97000003
-0.014977432 0.16695172 0.97000003
-0.014264728 0.16695172 0.97000003
-0.013593938 0.16746806 0.97300005
-0.012839321 0.16695172 0.97000003
-0.012026603 0.16557479 0.96200007
-0.011284477 0.16505845 0.95900005
-0.010579856 0.16505845 0.95900005
-0.0065905815 0.17125459 0.99500006
-0.0058595091 0.17125459 0.99500006
-0.0050253528 0.16781229 0.97500002
-0.0043089758 0.16781229 0.97500002
-0.0035925985 0.16781229 0.97500002
-0.0028703213 0.16746806 0.97300005
-0.0021554136 0.16746806 0.97300005
-0.0014405058 0.16746806 0.97300005
-0.00072559819 0.16746806 0.97300005
-1.0657493e-05 0.16695172 0.97000003
0.00070204597 0.16695172 0.97000003
0.0014147495 0.16695172 0.97000003
0.0021208732 0.16643538 0.96700007
0.0028401567 0.16695172 0.97000003
0.0035528601 0.16695172 0.97000003
0.0042787557 0.16746806 0.97300005
0.0049936636 0.16746806 0.97300005
0.0056557688 0.16591902 0.96400005
0.0064762924 0.16884498 0.98100007
0.0071970783 0.16884498 0.98100007
0.0079178642 0.16884498 0.98100007
0.031251341 0.16643538 0.96700007
0.032160155 0.16746806 0.97300005
0.032942642 0.16781229 0.97500002
0.033762582 0.16832863 0.97800004
0.034481164 0.16832863 0.97800004
0.035415694 0.16936132 0.98400003
0.036028508 0.16884498 0.98100007
0.036861677 0.16936132 0.98400003
0.037584666 0.16936132 0.98400003
0.038190864 0.16884498 0.98100007
0.038594328 0.16746806 0.97300005
0.039188035 0.16695172 0.97000003
0.039900739 0.16695172 0.97000003
0.040613443 0.16695172 0.97000003
0.041453958 0.16746806 0.97300005
0.042168863 0.16746806 0.97300005
0.042883772 0.16746806 0.97300005
0.043598682 0.16746806 0.97300005
0.044313587 0.16746806 0.97300005
0.045121055 0.16781229 0.97500002
0.045837432 0.16781229 0.97500002
0.046553809 0.16781229 0.97500002
0.047270186 0.16781229 0.97500002
0.047986563 0.16781229 0.97500002
0.048603036 0.16746806 0.97300005
0.049419317 0.16781229 0.97500002
0.050032854 0.16746806 0.97300005
0.051008537 0.16832863 0.97800004
0.051462669 0.16746806 0.97300005
0.052016694 0.16695172 0.97000003
0.053925324 0.17073824 0.99200004
0.053607393 0.16746806 0.97300005
0.055215571 0.17022189 0.98900002
0.05486751 0.16695172 0.97000003
0.055580214 0.16695172 0.97000003
0.056467023 0.16746806 0.97300005
0.057181928 0.16746806 0.97300005
0.057896838 0.16746806 0.97300005
0.058611747 0.16746806 0.97300005
0.059326652 0.16746806 0.97300005
0.060350098 0.16832863 0.97800004
0.061443336 0.16936132 0.98400003
0.061787259 0.16832863 0.97800004
0.061994545 0.16695172 0.97000003
0.062707245 0.16695172 0.97000003
0.06481462 0.16505845 0.95900005
0.065314278 0.16454211 0.95600003
0.067328751 0.16781229 0.97500002
0.068045124 0.16781229 0.97500002
0.068761505 0.16781229 0.97500002
0.069477879 0.16781229 0.97500002
0.070194259 0.16781229 0.97500002
0.070910633 0.16781229 0.97500002
0.07206779 0.16884498 0.98100007
0.07256598 0.16832863 0.97800004
0.073734164 0.16936132 0.98400003
0.074835494 0.17022189 0.98900002
0.075562157 0.17022189 0.98900002
0.076520227 0.17073824 0.99200004
0.077249095 0.17073824 0.99200004
0.077742144 0.17022189 0.98900002
0.078310125 0.16987768 0.98700005
0.079035319 0.16987768 0.98700005
0.079275645 0.16884498 0.98100007
0.079996429 0.16884498 0.98100007
0.080470376 0.16832863 0.97800004
0.081188962 0.16832863 0.97800004
0.081907541 0.16832863 0.97800004
0.082626119 0.16832863 0.97800004
0.083344705 0.16832863 0.97800004
0.084321149 0.16884498 0.98100007
0.085735448 0.17022189 0.98900002
0.08628726 0.16987768 0.98700005
0.089368768 0.17022189 0.98900002
0.090095431 0.17022189 0.98900002
0.091097586 0.17073824 0.99200004
0.091826454 0.17073824 0.99200004
0.092555322 0.17073824 0.99200004
0.090539664 0.16316518 0.94800007
0.091236204 0.16316518 0.94800007
0.095132932 0.16884498 0.98100007
0.095853716 0.16884498 0.98100007
0.097165167 0.16987768 0.98700005
0.097592823 0.16936132 0.98400003
0.09831582 0.16936132 0.98400003
0.09903881 0.16936132 0.98400003
0.099761799 0.16936132 0.98400003
-0.084124185 0.16493849 0.95400006
-0.084122807 0.16632164 0.96200007
-0.083155848 0.16580296 0.95900005
-0.0821933 0.16528429 0.95600003
-0.081064671 0.16441983 0.95100003
-0.080365926 0.16441983 0.95100003
-0.080086045 0.16528429 0.95600003
-0.079383634 0.16528429 0.95600003
-0.079586543 0.1671861 0.96700007
-0.078631334 0.16666742 0.96400005
-0.07751888 0.16580296 0.95900005
-0.076814257 0.16580296 0.95900005
-0.07587155 0.16528429 0.95600003
-0.075405017 0.16580296 0.95900005
-0.074466713 0.16528429 0.95600003
-0.073609978 0.16493849 0.95400006
-0.072909027 0.16493849 0.95400006
-0.071981013 0.16441983 0.95100003
-0.071507134 0.16493849 0.95400006
-0.071177289 0.16580296 0.95900005
-0.071648434 0.16856922 0.97500002
-0.070932053 0.16856922 0.97500002
-0.070071645 0.16822344 0.97300005
-0.06935674 0.16822344 0.97300005
-0.06800691 0.16666742 0.96400005
-0.067298621 0.16666742 0.96400005
-0.066244937 0.16580296 0.95900005
-0.065335289 0.16528429 0.95600003
-0.064835697 0.16580296 0.95900005
-0.063930459 0.16528429 0.95600003
-0.063228041 0.16528429 0.95600003
-0.062525623 0.16528429 0.95600003
-0.062534556 0.1671861 0.96700007
-0.061632257 0.16666742 0.96400005
-0.061113562 0.1671861 0.96700007
-0.060777847 0.16822344 0.97300005
-0.060186397 0.16856922 0.97500002
-0.05947002 0.16856922 0.97500002
-0.058452345 0.16770476 0.97000003
-0.057263434 0.16632164 0.96200007
-0.056203868 0.16528429 0.95600003
-0.056488398 0.16822344 0.97300005
-0.054970998 0.16580296 0.95900005
-0.054549307 0.16666742 0.96400005
-0.05400857 0.1671861 0.96700007
-0.053022482 0.16632164 0.96200007
-0.052913859 0.16822344 0.97300005
-0.052198954 0.16822344 0.97300005
-0.051007833 0.16666742 0.96400005
-0.049882114 0.16528429 0.95600003
-0.049488354 0.16632164 0.96200007
-0.048629407 0.16580296 0.95900005
-0.048074707 0.16632164 0.96200007
-0.047220163 0.16580296 0.95900005
-0.046515539 0.16580296 0.95900005
-0.045285456 0.16390115 0.94800007
-0.044965196 0.16528429 0.95600003
-0.044170178 0.16493849 0.95400006
-0.04319584 0.16390115 0.94800007
-0.042409636 0.16355537 0.94600004
-0.041714568 0.16355537 0.94600004
-0.041799996 0.16666742 0.96400005
-0.041091703 0.16666742 0.96400005
-0.040509082 0.1671861 0.96700007
-0.039798584 0.1671861 0.96700007
-0.039209347 0.16770476 0.97000003
-0.038496647 0.16770476 0.97000003
-0.037667084 0.1671861 0.96700007
-0.036841933 0.16666742 0.96400005
-0.036133636 0.16666742 0.96400005
-0.0352416 0.16580296 0.95900005
-0.034428939 0.16528429 0.95600003
-0.033655964 0.16493849 0.95400006
-0.033024106 0.16528429 0.95600003
-0.03225407 0.16493849 0.95400006
-0.031354673 0.16390115 0.94800007
-0.030658135 0.16390115 0.94800007
-0.029961595 0.16390115 0.94800007
-0.030098554 0.16856922 0.97500002
-0.029382177 0.16856922 0.97500002
-0.028607 0.16822344 0.97300005
-0.027949423 0.16856922 0.97500002
-0.027233046 0.16856922 0.97500002
-0.026380686 0.16770476 0.97000003
-0.024749463 0.16632164 0.96200007
-0.024042636 0.16632164 0.96200007
-0.019739931 0.16580296 0.95900005
-0.01833069 0.16580296 0.95900005
-0.016868513 0.16528429 0.95600003
-0.016216826 0.16580296 0.95900005
-0.015512205 0.16580296 0.95900005
-0.01493111 0.1671861 0.96700007
-0.014176493 0.16666742 0.96400005
-0.013510111 0.1671861 0.96700007
-0.012799611 0.1671861 0.96700007
-0.011989099 0.16580296 0.95900005
-0.011284477 0.16580296 0.95900005
-0.010579856 0.16580296 0.95900005
-0.0098752351 0.16580296 0.95900005
-0.0063322573 0.16528429 0.95600003
-0.0056180619 0.16493849 0.95400006
-0.0049274233 0.16528429 0.95600003
-0.0042603617 0.16666742 0.96400005
-0.0035520664 0.16666742 0.96400005
-0.0028526215 0.1671861 0.96700007
-0.0021421222 0.1671861 0.96700007
-0.0014316231 0.1671861 0.96700007
-0.00072112377 0.1671861 0.96700007
-1.059157e-05 0.16666742 0.96400005
0.00069770345 0.16666742 0.96400005
0.0014030815 0.16632164 0.96200007
0.0021099071 0.16632164 0.96200007
0.0028167325 0.16632164 0.96200007
0.0035235581 0.16632164 0.96200007
0.0042391787 0.16666742 0.96400005
0.0049474738 0.16666742 0.96400005
0.0056557688 0.16666742 0.96400005
0.03115439 0.16666742 0.96400005
0.032060999 0.16770476 0.97000003
0.032875065 0.16822344 0.97300005
0.033762582 0.1690879 0.97800004
0.03430488 0.16822344 0.97300005
0.035091773 0.16856922 0.97500002
0.035734694 0.16822344 0.97300005
0.036449604 0.16822344 0.97300005
0.037164509 0.16822344 0.97300005
0.037762627 0.16770476 0.97000003
0.038475331 0.16770476 0.97000003
0.039066833 0.1671861 0.96700007
0.039777335 0.1671861 0.96700007
0.040487833 0.1671861 0.96700007
0.041326147 0.16770476 0.97000003
0.04203885 0.16770476 0.97000003
0.042751554 0.16770476 0.97000003
0.043464255 0.16770476 0.97000003
0.044313587 0.16822344 0.97300005
0.045028497 0.16822344 0.97300005
0.045837432 0.16856922 0.97500002
0.046553809 0.16856922 0.97500002
0.047173221 0.16822344 0.97300005
0.047888126 0.16822344 0.97300005
0.048603036 0.16822344 0.97300005
0.049317945 0.16822344 0.97300005
0.050032854 0.16822344 0.97300005
0.05074776 0.16822344 0.97300005
0.05130399 0.16770476 0.97000003
0.051855821 0.1671861 0.96700007
0.052403241 0.16666742 0.96400005
0.053276818 0.1671861 0.96700007
0.053708173 0.16632164 0.96200007
0.054697819 0.1671861 0.96700007
0.055408318 0.1671861 0.96700007
0.056292918 0.16770476 0.97000003
0.057005621 0.16770476 0.97000003
0.057896838 0.16822344 0.97300005
0.058611747 0.16822344 0.97300005
0.059326652 0.16822344 0.97300005
0.060041562 0.16822344 0.97300005
0.060881354 0.16856922 0.97500002
0.061471377 0.16822344 0.97300005
0.061611075 0.16666742 0.96400005
0.064611867 0.16528429 0.95600003
0.065314278 0.16528429 0.95600003
0.06622386 0.16580296 0.95900005
0.067696169 0.16770476 0.97000003
0.068620451 0.16822344 0.97300005
0.069335364 0.16822344 0.97300005
0.070050269 0.16822344 0.97300005
0.070765175 0.16822344 0.97300005
0.07206779 0.16960657 0.98100007
0.07256598 0.1690879 0.97800004
0.073734164 0.17012525 0.98400003
0.074835494 0.17098971 0.98900002
0.075562157 0.17098971 0.98900002
0.076288819 0.17098971 0.98900002
0.077015482 0.17098971 0.98900002
0.07758493 0.17064393 0.98700005
0.07735803 0.16856922 0.97500002
0.078314632 0.1690879 0.97800004
0.079033218 0.1690879 0.97800004
0.079751797 0.1690879 0.97800004
0.080223538 0.16856922 0.97500002
0.080939911 0.16856922 0.97500002
0.081907541 0.1690879 0.97800004
0.082372673 0.16856922 0.97500002
0.083089046 0.16856922 0.97500002
0.084063284 0.1690879 0.97800004
0.085562073 0.17064393 0.98700005
0.086024992 0.17012525 0.98400003
0.087012455 0.17064393 0.98700005
0.087607965 0.16493849 0.95400006
0.090539664 0.16390115 0.94800007
0.091236204 0.16390115 0.94800007
0.092514597 0.16493849 0.95400006
0.095853716 0.16960657 0.98100007
0.0965745 0.16960657 0.98100007
0.097295292 0.16960657 0.98100007
0.098016076 0.16960657 0.98100007
0.09903881 0.17012525 0.98400003
0.099457644 0.16960657 0.98100007
-0.084300548 0.16602647 0.95600003
-0.084122807 0.16706848 0.96200007
-0.083155848 0.16654748 0.95900005
-0.082021348 0.16567914 0.95400006
-0.080808952 0.16463713 0.94800007
-0.080112413 0.16463713 0.94800007
-0.079415873 0.16463713 0.94800007
-0.078719333 0.16463713 0.94800007
-0.07892812 0.16654748 0.95900005
-0.078223504 0.16654748 0.95900005
-0.077276379 0.16602647 0.95600003
-0.07657396 0.16602647 0.95600003
-0.075712815 0.16567914 0.95400006
-0.074775979 0.16515814 0.95100003
-0.074310921 0.16567914 0.95400006
-0.073378496 0.16515814 0.95100003
-0.072679751 0.16515814 0.95100003
-0.071753941 0.16463713 0.94800007
-0.070907496 0.16428979 0.94600004
-0.070360869 0.16463713 0.94800007
-0.069664329 0.16463713 0.94800007
-0.069404289 0.16567914 0.95400006
-0.068703346 0.16567914 0.95400006
-0.068002395 0.16567914 0.95400006
-0.067442544 0.16602647 0.95600003
-0.066949561 0.16654748 0.95900005
-0.066037707 0.16602647 0.95600003
-0.065198608 0.16567914 0.95400006
-0.064497657 0.16567914 0.95400006
-0.063596092 0.16515814 0.95100003
-0.062897347 0.16515814 0.95100003
-0.062198602 0.16515814 0.95100003
-0.06149986 0.16515814 0.95100003
-0.060289647 0.16376878 0.94300002
-0.059596781 0.16376878 0.94300002
-0.057779558 0.16064277 0.92500007
-0.05709992 0.16064277 0.92500007
-0.05831112 0.16602647 0.95600003
-0.057608701 0.16602647 0.95600003
-0.056906287 0.16602647 0.95600003
-0.056086287 0.16567914 0.95400006
-0.05550145 0.16602647 0.95600003
-0.054684389 0.16567914 0.95400006
-0.053983442 0.16567914 0.95400006
-0.053282496 0.16567914 0.95400006
-0.052416198 0.16515814 0.95100003
-0.051717453 0.16515814 0.95100003
-0.051018711 0.16515814 0.95100003
-0.050319966 0.16515814 0.95100003
-0.049621224 0.16515814 0.95100003
-0.04907681 0.16567914 0.95400006
-0.048477281 0.16602647 0.95600003
-0.047674917 0.16567914 0.95400006
-0.047072448 0.16602647 0.95600003
-0.046273019 0.16567914 0.95400006
-0.045428764 0.16515814 0.95100003
-0.044871125 0.16567914 0.95400006
-0.044031281 0.16515814 0.95100003
-0.04319584 0.16463713 0.94800007
-0.042409636 0.16428979 0.94600004
-0.04180276 0.16463713 0.94800007
-0.040889416 0.16376878 0.94300002
-0.040196553 0.16376878 0.94300002
-0.040383406 0.16741583 0.96400005
-0.039675113 0.16741583 0.96400005
-0.038966816 0.16741583 0.96400005
-0.038258523 0.16741583 0.96400005
-0.036926989 0.16463713 0.94800007
-0.036154013 0.16428979 0.94600004
-0.035833772 0.16602647 0.95600003
-0.034837369 0.16463713 0.94800007
-0.034248874 0.16515814 0.95100003
-0.033444293 0.16463713 0.94800007
-0.032955017 0.16567914 0.95400006
-0.032152642 0.16515814 0.95100003
-0.031354673 0.16463713 0.94800007
-0.030658135 0.16463713 0.94800007
-0.029898385 0.16428979 0.94600004
-0.029265057 0.16463713 0.94800007
-0.028508246 0.16428979 0.94600004
-0.027871979 0.16463713 0.94800007
-0.02717544 0.16463713 0.94800007
-0.026478902 0.16463713 0.94800007
-0.025999935 0.16602647 0.95600003
-0.025297519 0.16602647 0.95600003
-0.024672281 0.16654748 0.95900005
-0.023967659 0.16654748 0.95900005
-0.023263039 0.16654748 0.95900005
-0.022628985 0.16706848 0.96200007
-0.02192216 0.16706848 0.96200007
-0.021215335 0.16706848 0.96200007
-0.020444553 0.16654748 0.95900005
-0.019739931 0.16654748 0.95900005
-0.019035311 0.16654748 0.95900005
-0.016833223 0.16567914 0.95400006
-0.016132275 0.16567914 0.95400006
-0.015431328 0.16567914 0.95400006
-0.014761261 0.16602647 0.95600003
-0.014058844 0.16602647 0.95600003
-0.013356427 0.16602647 0.95600003
-0.01265401 0.16602647 0.95600003
-0.011951594 0.16602647 0.95600003
-0.011249176 0.16602647 0.95600003
-0.0063322573 0.16602647 0.95600003
-0.0056180619 0.16567914 0.95400006
-0.0049274233 0.16602647 0.95600003
-0.0042250063 0.16602647 0.95600003
-0.003533643 0.16654748 0.95900005
-0.0028378717 0.16706848 0.96200007
-0.002131046 0.16706848 0.96200007
-0.0014242206 0.16706848 0.96200007
-0.0007173951 0.16706848 0.96200007
-1.0569595e-05 0.16706848 0.96200007
0.00069408468 0.16654748 0.95900005
0.0013987059 0.16654748 0.95900005
0.0021033271 0.16654748 0.95900005
0.0028079485 0.16654748 0.95900005
0.0035125699 0.16654748 0.95900005
0.0042171911 0.16654748 0.95900005
0.0049218126 0.16654748 0.95900005
0.0056440346 0.16706848 0.96200007
0.02564667 0.16845782 0.97000003
0.031796578 0.16706848 0.96200007
0.032672342 0.16793682 0.96700007
0.033486407 0.16845782 0.97000003
0.034199111 0.16845782 0.97000003
0.034803838 0.16793682 0.96700007
0.035404161 0.16741583 0.96400005
0.036037531 0.16706848 0.96200007
0.036820751 0.16741583 0.96400005
0.037529044 0.16741583 0.96400005
0.038237341 0.16741583 0.96400005
0.038864832 0.16706848 0.96200007
0.039448258 0.16654748 0.95900005
0.040362224 0.16741583 0.96400005
0.041070521 0.16741583 0.96400005
0.04190883 0.16793682 0.96700007
0.042619329 0.16793682 0.96700007
0.043329831 0.16793682 0.96700007
0.044176959 0.16845782 0.97000003
0.044889662 0.16845782 0.97000003
0.045743402 0.16897883 0.97300005
0.046458311 0.16897883 0.97300005
0.047173221 0.16897883 0.97300005
0.047888126 0.16897883 0.97300005
0.048453178 0.16845782 0.97000003
0.049165882 0.16845782 0.97000003
0.049724322 0.16793682 0.96700007
0.05043482 0.16793682 0.96700007
0.051145323 0.16793682 0.96700007
0.051694945 0.16741583 0.96400005
0.052131437 0.16654748 0.95900005
0.052836057 0.16654748 0.95900005
0.053261533 0.16567914 0.95400006
0.054245301 0.16654748 0.95900005
0.055236422 0.16741583 0.96400005
0.056118816 0.16793682 0.96700007
0.056829315 0.16793682 0.96700007
0.057718322 0.16845782 0.97000003
0.058431026 0.16845782 0.97000003
0.05914373 0.16845782 0.97000003
0.059856433 0.16845782 0.97000003
0.060569137 0.16845782 0.97000003
0.06109231 0.16793682 0.96700007
0.061291512 0.16654748 0.95900005
0.064273939 0.16515814 0.95100003
0.064767718 0.16463713 0.94800007
0.065464258 0.16463713 0.94800007
0.066160798 0.16463713 0.94800007
0.068197303 0.16793682 0.96700007
0.069121577 0.16845782 0.97000003
0.069834284 0.16845782 0.97000003
0.070546985 0.16845782 0.97000003
0.071259692 0.16845782 0.97000003
0.07034003 0.16463713 0.94800007
0.071636036 0.16602647 0.95600003
0.072338454 0.16602647 0.95600003
0.073040865 0.16602647 0.95600003
0.073743284 0.16602647 0.95600003
0.074679315 0.16654748 0.95900005
0.075383939 0.16654748 0.95900005
0.076326586 0.16706848 0.96200007
0.076793179 0.16654748 0.95900005
0.078629158 0.16897883 0.97300005
0.079507157 0.16932617 0.97500002
0.080058977 0.16897883 0.97300005
0.080939911 0.16932617 0.97500002
0.081656292 0.16932617 0.97500002
0.082203701 0.16897883 0.97300005
0.082407288 0.16793682 0.96700007
0.083375648 0.16845782 0.97000003
0.083394848 0.16706848 0.96200007
0.083839394 0.16654748 0.95900005
0.085954554 0.16932617 0.97500002
0.086937614 0.16984716 0.97800004
0.087656192 0.16984716 0.97800004
0.089146584 0.16463713 0.94800007
0.090826184 0.16515814 0.95100003
0.091813646 0.16567914 0.95400006
0.092514597 0.16567914 0.95400006
0.092629276 0.16463713 0.94800007
0.096279167 0.16984716 0.97800004
0.096997753 0.16984716 0.97800004
0.097716331 0.16984716 0.97800004
0.09873686 0.17036816 0.98100007
0.099457644 0.17036816 0.98100007
-0.084124185 0.16641977 0.95400006
-0.083423242 0.16641977 0.95400006
-0.082722291 0.16641977 0.95400006
-0.081505492 0.16537312 0.94800007
-0.080382742 0.16450089 0.94300002
-0.079943396 0.16502422 0.94600004
-0.078997009 0.16450089 0.94300002
-0.078304149 0.16450089 0.94300002
-0.07736437 0.16397755 0.94000006
-0.077815659 0.16641977 0.95400006
-0.076872215 0.16589645 0.95100003
-0.076413766 0.16641977 0.95400006
-0.075474724 0.16589645 0.95100003
-0.074775979 0.16589645 0.95100003
-0.074077241 0.16589645 0.95100003
-0.073378496 0.16589645 0.95100003
-0.072450481 0.16537312 0.94800007
-0.071602561 0.16502422 0.94600004
-0.070907496 0.16502422 0.94600004
-0.070212424 0.16502422 0.94600004
-0.069296896 0.16450089 0.94300002
-0.069186039 0.16589645 0.95100003
-0.068487294 0.16589645 0.95100003
-0.067788549 0.16589645 0.95100003
-0.067301445 0.16641977 0.95400006
-0.066740125 0.16676867 0.95600003
-0.065899551 0.16641977 0.95400006
-0.064993575 0.16589645 0.95100003
-0.06429483 0.16589645 0.95100003
-0.063395478 0.16537312 0.94800007
-0.06256666 0.16502422 0.94600004
-0.061871588 0.16502422 0.94600004
-0.06098251 0.16450089 0.94300002
-0.060289647 0.16450089 0.94300002
-0.05877519 0.1622331 0.93000007
-0.057779558 0.16136089 0.92500007
-0.05709992 0.16136089 0.92500007
-0.05660326 0.16188422 0.92800003
-0.055921417 0.16188422 0.92800003
-0.056608655 0.16589645 0.95100003
-0.055909913 0.16589645 0.95100003
-0.055037007 0.16537312 0.94800007
-0.054512426 0.16589645 0.95100003
-0.053813681 0.16589645 0.95100003
-0.053282496 0.16641977 0.95400006
-0.052250851 0.16537312 0.94800007
-0.051554311 0.16537312 0.94800007
-0.050857771 0.16537312 0.94800007
-0.050055407 0.16502422 0.94600004
-0.049621224 0.16589645 0.95100003
-0.048922479 0.16589645 0.95100003
-0.048375864 0.16641977 0.95400006
-0.047375072 0.16537312 0.94800007
-0.046826251 0.16589645 0.95100003
-0.045981996 0.16537312 0.94800007
-0.045285456 0.16537312 0.94800007
-0.044730023 0.16589645 0.95100003
-0.043799777 0.16502422 0.94600004
-0.043104708 0.16502422 0.94600004
-0.042275149 0.16450089 0.94300002
-0.041361805 0.16362867 0.93800002
-0.040672611 0.16362867 0.93800002
-0.03985554 0.16310532 0.93500006
-0.039294228 0.16362867 0.93800002
-0.038605038 0.16362867 0.93800002
-0.037915844 0.16362867 0.93800002
-0.037226655 0.16362867 0.93800002
-0.036732227 0.16450089 0.94300002
-0.03603936 0.16450089 0.94300002
-0.035458941 0.16502422 0.94600004
-0.034763873 0.16502422 0.94600004
-0.034140829 0.16537312 0.94800007
-0.033373732 0.16502422 0.94600004
-0.032747753 0.16537312 0.94800007
-0.032051213 0.16537312 0.94800007
-0.031288523 0.16502422 0.94600004
-0.030593455 0.16502422 0.94600004
-0.02980357 0.16450089 0.94300002
-0.029110705 0.16450089 0.94300002
-0.028417841 0.16450089 0.94300002
-0.027813176 0.16502422 0.94600004
-0.027118107 0.16502422 0.94600004
-0.026423037 0.16502422 0.94600004
-0.025782362 0.16537312 0.94800007
-0.025085822 0.16537312 0.94800007
-0.024543647 0.16641977 0.95400006
-0.023892682 0.16676867 0.95600003
-0.023190266 0.16676867 0.95600003
-0.022628985 0.16781533 0.96200007
-0.02192216 0.16781533 0.96200007
-0.021149175 0.167292 0.95900005
-0.020380598 0.16676867 0.95600003
-0.019678181 0.16676867 0.95600003
-0.016780289 0.16589645 0.95100003
-0.016081546 0.16589645 0.95100003
-0.015382801 0.16589645 0.95100003
-0.01473038 0.16641977 0.95400006
-0.014029433 0.16641977 0.95400006
-0.013286572 0.16589645 0.95100003
-0.012587829 0.16589645 0.95100003
-0.01192659 0.16641977 0.95400006
-0.011225643 0.16641977 0.95400006
-0.0070346743 0.16676867 0.95600003
-0.0063322573 0.16676867 0.95600003
-0.0056180619 0.16641977 0.95400006
-0.0049171145 0.16641977 0.95400006
-0.0042250063 0.16676867 0.95600003
-0.0035225891 0.16676867 0.95600003
-0.0028290218 0.167292 0.95900005
-0.0021244006 0.167292 0.95900005
-0.0014197793 0.167292 0.95900005
-0.00071515795 0.167292 0.95900005
-1.0503673e-05 0.16676867 0.95600003
0.00069191336 0.16676867 0.95600003
0.0013943304 0.16676867 0.95600003
0.0020967475 0.16676867 0.95600003
0.0027991645 0.16676867 0.95600003
0.0035015815 0.16676867 0.95600003
0.0042039985 0.16676867 0.95600003
0.0049218126 0.167292 0.95900005
0.005626434 0.167292 0.95900005
0.00635086 0.16781533 0.96200007
0.010349588 0.16397755 0.94000006
0.01101676 0.16362867 0.93800002
0.011730911 0.16397755 0.94000006
0.02564667 0.16921088 0.97000003
0.031089753 0.16781533 0.96200007
0.031697422 0.167292 0.95900005
0.032402042 0.167292 0.95900005
0.033279274 0.16816422 0.96400005
0.033987571 0.16816422 0.96400005
0.03462388 0.16781533 0.96200007
0.03522053 0.167292 0.95900005
0.035812765 0.16676867 0.95600003
0.036324203 0.16589645 0.95100003
0.037217598 0.16676867 0.95600003
0.038158007 0.16781533 0.96200007
0.038743634 0.167292 0.95900005
0.039448258 0.167292 0.95900005
0.040362224 0.16816422 0.96400005
0.041070521 0.16816422 0.96400005
0.041778814 0.16816422 0.96400005
0.042487111 0.16816422 0.96400005
0.043329831 0.16868755 0.96700007
0.043903701 0.16816422 0.96400005
0.044611994 0.16816422 0.96400005
0.045461327 0.16868755 0.96700007
0.04631507 0.16921088 0.97000003
0.046882324 0.16868755 0.96700007
0.047592826 0.16868755 0.96700007
0.048303325 0.16868755 0.96700007
0.048861764 0.16816422 0.96400005
0.049570061 0.16816422 0.96400005
0.050278354 0.16816422 0.96400005
0.050986651 0.16816422 0.96400005
0.051426817 0.167292 0.95900005
0.052131437 0.167292 0.95900005
0.052670773 0.16676867 0.95600003
0.053261533 0.16641977 0.95400006
0.05407561 0.16676867 0.95600003
0.054949921 0.167292 0.95900005
0.05582865 0.16781533 0.96200007
0.056653012 0.16816422 0.96400005
0.057361305 0.16816422 0.96400005
0.058250315 0.16868755 0.96700007
0.058960814 0.16868755 0.96700007
0.059671313 0.16868755 0.96700007
0.060381811 0.16868755 0.96700007
0.060902782 0.16816422 0.96400005
0.061291512 0.167292 0.95900005
0.063575193 0.16589645 0.95100003
0.064071178 0.16537312 0.94800007
0.064767718 0.16537312 0.94800007
0.065326147 0.16502422 0.94600004
0.066160798 0.16537312 0.94800007
0.066857331 0.16537312 0.94800007
0.06755387 0.16537312 0.94800007
0.06825041 0.16537312 0.94800007
0.06894695 0.16537312 0.94800007
0.06964349 0.16537312 0.94800007
0.07034003 0.16537312 0.94800007
0.072187118 0.16641977 0.95400006
0.072888061 0.16641977 0.95400006
0.073589012 0.16641977 0.95400006
0.074445702 0.16676867 0.95600003
0.075148121 0.16676867 0.95600003
0.076088563 0.167292 0.95900005
0.076793179 0.167292 0.95900005
0.077497803 0.167292 0.95900005
0.078854792 0.16868755 0.96700007
0.079318449 0.16816422 0.96400005
0.080524832 0.16921088 0.97000003
0.080986291 0.16868755 0.96700007
0.081696786 0.16868755 0.96700007
0.081469871 0.16676867 0.95600003
0.081742518 0.16589645 0.95100003
0.082701333 0.16641977 0.95400006
0.083402276 0.16641977 0.95400006
0.084103227 0.16641977 0.95400006
0.085248634 0.167292 0.95900005
0.085953258 0.167292 0.95900005
0.086206071 0.16641977 0.95400006
0.086907014 0.16641977 0.95400006
0.088263445 0.16502422 0.94600004
0.089146584 0.16537312 0.94800007
0.090539664 0.16537312 0.94800007
0.091524929 0.16589645 0.95100003
0.091932744 0.16537312 0.94800007
0.092629276 0.16537312 0.94800007
0.096279167 0.17060643 0.97800004
0.096997753 0.17060643 0.97800004
0.097716331 0.17060643 0.97800004
0.098434918 0.17060643 0.97800004
0.099153496 0.17060643 0.97800004
-0.081126049 0.16120291 0.92000002
-0.080450088 0.16120291 0.92000002
-0.079774119 0.16120291 0.92000002
-0.081075609 0.16523299 0.94300002
-0.079956532 0.16435687 0.93800002
-0.079689875 0.16523299 0.94300002
-0.078997009 0.16523299 0.94300002
-0.078304149 0.16523299 0.94300002
-0.077199765 0.16435687 0.93800002
-0.077163123 0.16575864 0.94600004
-0.07646805 0.16575864 0.94600004
-0.075772978 0.16575864 0.94600004
-0.075236641 0.16610909 0.94800007
-0.074382842 0.16575864 0.94600004
-0.073843561 0.16610909 0.94800007
-0.073147021 0.16610909 0.94800007
-0.072450481 0.16610909 0.94800007
-0.071602561 0.16575864 0.94600004
-0.07068263 0.16523299 0.94300002
-0.069989763 0.16523299 0.94300002
-0.069076441 0.16470732 0.94000006
-0.06838578 0.16470732 0.94000006
-0.067911163 0.16523299 0.94300002
-0.066149078 0.16260467 0.92800003
-0.066172697 0.16435687 0.93800002
-0.06583257 0.16523299 0.94300002
-0.065139703 0.16523299 0.94300002
-0.064446837 0.16523299 0.94300002
-0.06355115 0.16470732 0.94000006
-0.062860489 0.16470732 0.94000006
-0.06203755 0.16435687 0.93800002
-0.06134836 0.16435687 0.93800002
-0.060335826 0.16348077 0.93300003
-0.059458505 0.16295511 0.93000007
-0.05877519 0.16295511 0.93000007
-0.057779558 0.16207901 0.92500007
-0.05709992 0.16207901 0.92500007
-0.05660326 0.16260467 0.92800003
-0.055921417 0.16260467 0.92800003
-0.055061001 0.16207901 0.92500007
-0.054969266 0.16383122 0.93500006
-0.054282278 0.16383122 0.93500006
-0.054053858 0.16523299 0.94300002
-0.053530753 0.16575864 0.94600004
-0.052835684 0.16575864 0.94600004
-0.052250851 0.16610909 0.94800007
-0.051445544 0.16575864 0.94600004
-0.050750475 0.16575864 0.94600004
-0.049896665 0.16523299 0.94300002
-0.049464695 0.16610909 0.94800007
-0.048510935 0.16523299 0.94300002
-0.048223738 0.16663474 0.95100003
-0.047275126 0.16575864 0.94600004
-0.046678536 0.16610909 0.94800007
-0.045981996 0.16610909 0.94800007
-0.045189917 0.16575864 0.94600004
-0.044494845 0.16575864 0.94600004
-0.043660879 0.16523299 0.94300002
-0.042968012 0.16523299 0.94300002
-0.042140655 0.16470732 0.94000006
-0.041361805 0.16435687 0.93800002
-0.040542528 0.16383122 0.93500006
-0.03977029 0.16348077 0.93300003
-0.039168552 0.16383122 0.93500006
-0.038481567 0.16383122 0.93500006
-0.037794579 0.16383122 0.93500006
-0.037107591 0.16383122 0.93500006
-0.036537461 0.16435687 0.93800002
-0.035924703 0.16470732 0.94000006
-0.035346493 0.16523299 0.94300002
-0.03465363 0.16523299 0.94300002
-0.033960763 0.16523299 0.94300002
-0.033267897 0.16523299 0.94300002
-0.032575034 0.16523299 0.94300002
-0.031983595 0.16575864 0.94600004
-0.031189302 0.16523299 0.94300002
-0.030496437 0.16523299 0.94300002
-0.02980357 0.16523299 0.94300002
-0.029018093 0.16470732 0.94000006
-0.028327432 0.16470732 0.94000006
-0.027724976 0.16523299 0.94300002
-0.027032109 0.16523299 0.94300002
-0.026339244 0.16523299 0.94300002
-0.025727967 0.16575864 0.94600004
-0.024953514 0.16523299 0.94300002
-0.024466466 0.16663474 0.95100003
-0.023767721 0.16663474 0.95100003
-0.023141751 0.16716041 0.95400006
-0.022487849 0.16751085 0.95600003
-0.021785432 0.16751085 0.95600003
-0.021083014 0.16751085 0.95600003
-0.020337962 0.16716041 0.95400006
-0.019637013 0.16716041 0.95400006
-0.016780289 0.16663474 0.95100003
-0.016081546 0.16663474 0.95100003
-0.015382801 0.16663474 0.95100003
-0.01473038 0.16716041 0.95400006
-0.013985315 0.16663474 0.95100003
-0.013244658 0.16610909 0.94800007
-0.012548119 0.16610909 0.94800007
-0.011889085 0.16663474 0.95100003
-0.011225643 0.16716041 0.95400006
-0.010524695 0.16716041 0.95400006
-0.009823747 0.16716041 0.95400006
-0.0090941116 0.16663474 0.95100003
-0.0084218523 0.16716041 0.95400006
-0.0077209049 0.16716041 0.95400006
-0.0070199571 0.16716041 0.95400006
-0.0063190097 0.16716041 0.95400006
-0.0056003951 0.16663474 0.95100003
-0.0049016518 0.16663474 0.95100003
-0.0042029084 0.16663474 0.95100003
-0.0035152193 0.16716041 0.95400006
-0.0028201719 0.16751085 0.95600003
-0.0021177549 0.16751085 0.95600003
-0.0014153378 0.16751085 0.95600003
-0.00071142928 0.16716041 0.95400006
-1.0481699e-05 0.16716041 0.95400006
0.00069046585 0.16716041 0.95400006
0.0013914134 0.16716041 0.95400006
0.002092361 0.16716041 0.95400006
0.0027933086 0.16716041 0.95400006
0.0034942562 0.16716041 0.95400006
0.0041952035 0.16716041 0.95400006
0.0049064155 0.16751085 0.95600003
0.005626434 0.16803651 0.95900005
0.010349588 0.16470732 0.94000006
0.01101676 0.16435687 0.93800002
0.011705952 0.16435687 0.93800002
0.029491011 0.16751085 0.95600003
0.030193429 0.16751085 0.95600003
0.030895846 0.16751085 0.95600003
0.031532157 0.16716041 0.95400006
0.032233108 0.16716041 0.95400006
0.033106666 0.16803651 0.95900005
0.033917055 0.16856217 0.96200007
0.034515906 0.16803651 0.95900005
0.035036895 0.16716041 0.95400006
0.035625458 0.16663474 0.95100003
0.036324203 0.16663474 0.95100003
0.037022945 0.16663474 0.95100003
0.037920017 0.16751085 0.95600003
0.038541634 0.16716041 0.95400006
0.039448258 0.16803651 0.95900005
0.040278483 0.16856217 0.96200007
0.040985309 0.16856217 0.96200007
0.041778814 0.16891262 0.96400005
0.042398959 0.16856217 0.96200007
0.043195404 0.16891262 0.96400005
0.043903701 0.16891262 0.96400005
0.044519436 0.16856217 0.96200007
0.045226265 0.16856217 0.96200007
0.04593309 0.16856217 0.96200007
0.046736881 0.16891262 0.96400005
0.047346741 0.16856217 0.96200007
0.048053566 0.16856217 0.96200007
0.048760392 0.16856217 0.96200007
0.049312953 0.16803651 0.95900005
0.049861107 0.16751085 0.95600003
0.050563522 0.16751085 0.95600003
0.05126594 0.16751085 0.95600003
0.051859636 0.16716041 0.95400006
0.052395303 0.16663474 0.95100003
0.053261533 0.16716041 0.95400006
0.05396248 0.16716041 0.95400006
0.054778025 0.16751085 0.95600003
0.055480443 0.16751085 0.95600003
0.056065325 0.16716041 0.95400006
0.056409247 0.16610909 0.94800007
0.057949126 0.16856217 0.96200007
0.058777895 0.16891262 0.96400005
0.059486192 0.16891262 0.96400005
0.060069602 0.16856217 0.96200007
0.060586892 0.16803651 0.95900005
0.061099779 0.16751085 0.95600003
0.062876448 0.16663474 0.95100003
0.063374639 0.16610909 0.94800007
0.06393601 0.16575864 0.94600004
0.064631075 0.16575864 0.94600004
0.065118983 0.16523299 0.94300002
0.06581185 0.16523299 0.94300002
0.066504709 0.16523299 0.94300002
0.067890443 0.16523299 0.94300002
0.06894695 0.16610909 0.94800007
0.06964349 0.16610909 0.94800007
0.07034003 0.16610909 0.94800007
0.071960114 0.16663474 0.95100003
0.072658859 0.16663474 0.95100003
0.073357604 0.16663474 0.95100003
0.074289963 0.16716041 0.95400006
0.074990906 0.16716041 0.95400006
0.075850539 0.16751085 0.95600003
0.076552957 0.16751085 0.95600003
0.077255368 0.16751085 0.95600003
0.078202426 0.16803651 0.95900005
0.078907043 0.16803651 0.95900005
0.080026746 0.16891262 0.96400005
0.080065042 0.16751085 0.95600003
0.081020907 0.16803651 0.95900005
0.081299432 0.16716041 0.95400006
0.082000382 0.16716041 0.95400006
0.082701333 0.16716041 0.95400006
0.083140008 0.16663474 0.95100003
0.083838753 0.16663474 0.95100003
0.084981956 0.16751085 0.95600003
0.085684374 0.16751085 0.95600003
0.086206071 0.16716041 0.95400006
0.086907014 0.16716041 0.95400006
0.088263445 0.16575864 0.94600004
0.088958509 0.16575864 0.94600004
0.089653581 0.16575864 0.94600004
0.090348653 0.16575864 0.94600004
0.091236204 0.16610909 0.94800007
0.09173879 0.16575864 0.94600004
0.092140734 0.16523299 0.94300002
0.093128927 0.16575864 0.94600004
0.093228921 0.16470732 0.94000006
0.093919583 0.16470732 0.94000006
0.094610244 0.16470732 0.94000006
0.095098138 0.16435687 0.93800002
0.095480971 0.16383122 0.93500006
0.096476518 0.16435687 0.93800002
0.098201595 0.16610909 0.94800007
0.098898135 0.16610909 0.94800007
0.099909849 0.16663474 0.95100003
-0.081222884 0.1594532 0.90600002
-0.08251334 0.16332512 0.92800003
-0.08156696 0.16279714 0.92500007
-0.080450088 0.16191715 0.92000002
-0.080034256 0.16244513 0.92300004
-0.080387801 0.1645571 0.93500006
-0.079530329 0.1642051 0.93300003
-0.079267338 0.16508509 0.93800002
-0.078326836 0.1645571 0.93500006
-0.077639848 0.1645571 0.93500006
-0.075553715 0.16156515 0.91800004
-0.074634515 0.16103716 0.91500002
-0.073962219 0.16103716 0.91500002
-0.073530227 0.16156515 0.91800004
-0.074839815 0.16596508 0.94300002
-0.074146956 0.16596508 0.94300002
-0.073454089 0.16596508 0.94300002
-0.072992705 0.16649306 0.94600004
-0.072297633 0.16649306 0.94600004
-0.071375489 0.16596508 0.94300002
-0.07068263 0.16596508 0.94300002
-0.069767103 0.16543709 0.94000006
-0.069076441 0.16543709 0.94000006
-0.068240277 0.16508509 0.93800002
-0.066614881 0.16279714 0.92500007
-0.065935239 0.16279714 0.92500007
-0.065467231 0.16332512 0.92800003
-0.065623134 0.16543709 0.94000006
-0.064932473 0.16543709 0.94000006
-0.064241812 0.16543709 0.94000006
-0.06341593 0.16508509 0.93800002
-0.062726744 0.16508509 0.93800002
-0.061839141 0.1645571 0.93500006
-0.061152153 0.1645571 0.93500006
-0.060335826 0.1642051 0.93300003
-0.059458505 0.16367711 0.93000007
-0.058648791 0.16332512 0.92800003
-0.057779558 0.16279714 0.92500007
-0.05709992 0.16279714 0.92500007
-0.056420282 0.16279714 0.92500007
-0.05574064 0.16279714 0.92500007
-0.055061001 0.16279714 0.92500007
-0.05455773 0.16332512 0.92800003
-0.053875882 0.16332512 0.92800003
-0.053022079 0.16279714 0.92500007
-0.052342441 0.16279714 0.92500007
-0.051662799 0.16279714 0.92500007
-0.050983161 0.16279714 0.92500007
-0.049759693 0.16103716 0.91500002
-0.050160356 0.1645571 0.93500006
-0.049473368 0.1645571 0.93500006
-0.048942909 0.16508509 0.93800002
-0.048099387 0.1645571 0.93500006
-0.047310986 0.1642051 0.93300003
-0.046725415 0.1645571 0.93500006
-0.045693755 0.16332512 0.92800003
-0.045496956 0.16508509 0.93800002
-0.045046609 0.16596508 0.94300002
-0.044353742 0.16596508 0.94300002
-0.043660879 0.16596508 0.94300002
-0.042968012 0.16596508 0.94300002
-0.042050995 0.16508509 0.93800002
-0.041229516 0.1645571 0.93500006
-0.040455807 0.1642051 0.93300003
-0.039642408 0.16367711 0.93000007
-0.039084774 0.1642051 0.93300003
-0.038399253 0.1642051 0.93300003
-0.037713736 0.1642051 0.93300003
-0.03702822 0.1642051 0.93300003
-0.036420602 0.1645571 0.93500006
-0.035733618 0.1645571 0.93500006
-0.035159077 0.16508509 0.93800002
-0.034543384 0.16543709 0.94000006
-0.033852722 0.16543709 0.94000006
-0.033162061 0.16543709 0.94000006
-0.0324714 0.16543709 0.94000006
-0.031882167 0.16596508 0.94300002
-0.031189302 0.16596508 0.94300002
-0.030399416 0.16543709 0.94000006
-0.029708754 0.16543709 0.94000006
-0.028956356 0.16508509 0.93800002
-0.028267164 0.16508509 0.93800002
-0.027636772 0.16543709 0.94000006
-0.026946111 0.16543709 0.94000006
-0.026199589 0.16508509 0.93800002
-0.025564788 0.16543709 0.94000006
-0.024741817 0.1645571 0.93500006
-0.024132013 0.16508509 0.93800002
-0.023767721 0.16737305 0.95100003
-0.023068978 0.16737305 0.95100003
-0.022440804 0.16790104 0.95400006
-0.021739855 0.16790104 0.95400006
-0.021038909 0.16790104 0.95400006
-0.020337962 0.16790104 0.95400006
-0.019637013 0.16790104 0.95400006
-0.018177776 0.16737305 0.95100003
-0.016727354 0.16684507 0.94800007
-0.016081546 0.16737305 0.95100003
-0.015334276 0.16684507 0.94800007
-0.014684059 0.16737305 0.95100003
-0.013911786 0.16649306 0.94600004
-0.013132889 0.16543709 0.94000006
-0.012481937 0.16596508 0.94300002
-0.011789072 0.16596508 0.94300002
-0.011155041 0.16684507 0.94800007
-0.010458502 0.16684507 0.94800007
-0.009792855 0.16737305 0.95100003
-0.0090462985 0.16649306 0.94600004
-0.0083512291 0.16649306 0.94600004
-0.0075671342 0.1645571 0.93500006
-0.0068286378 0.16332512 0.92800003
-0.0061269226 0.16279714 0.92500007
-0.0055827284 0.16684507 0.94800007
-0.004886189 0.16684507 0.94800007
-0.0041808113 0.16649306 0.94600004
-0.0035152193 0.16790104 0.95400006
-0.0028054221 0.16737305 0.95100003
-0.0021133244 0.16790104 0.95400006
-0.0014123768 0.16790104 0.95400006
-0.00070919207 0.16737305 0.95100003
-1.0448737e-05 0.16737305 0.95100003
0.00068829459 0.16737305 0.95100003
0.0013870378 0.16737305 0.95100003
0.0020857812 0.16737305 0.95100003
0.0027757406 0.16684507 0.94800007
0.0034722798 0.16684507 0.94800007
0.0041688187 0.16684507 0.94800007
0.0048807547 0.16737305 0.95100003
0.0055794981 0.16737305 0.95100003
0.0096383765 0.16508509 0.93800002
0.010327568 0.16508509 0.93800002
0.010981525 0.1645571 0.93500006
0.011705952 0.16508509 0.93800002
0.030035513 0.16737305 0.95100003
0.030734256 0.16737305 0.95100003
0.031333841 0.16684507 0.94800007
0.032030381 0.16684507 0.94800007
0.032726921 0.16684507 0.94800007
0.033423461 0.16684507 0.94800007
0.034120001 0.16684507 0.94800007
0.034816537 0.16684507 0.94800007
0.035438158 0.16649306 0.94600004
0.036133226 0.16649306 0.94600004
0.036828294 0.16649306 0.94600004
0.037602697 0.16684507 0.94800007
0.038299233 0.16684507 0.94800007
0.038995773 0.16684507 0.94800007
0.038854923 0.16332512 0.92800003
0.040729683 0.16825303 0.95600003
0.041432101 0.16825303 0.95600003
0.042046372 0.16790104 0.95400006
0.040462084 0.15892519 0.90300006
0.041034475 0.15857321 0.90100002
0.044380605 0.16878103 0.95900005
0.045085225 0.16878103 0.95900005
0.045646604 0.16825303 0.95600003
0.046494469 0.16878103 0.95900005
0.047051437 0.16825303 0.95600003
0.047753856 0.16825303 0.95600003
0.04845627 0.16825303 0.95600003
0.049158689 0.16825303 0.95600003
0.049443856 0.16684507 0.94800007
0.050140396 0.16684507 0.94800007
0.050997816 0.16737305 0.95100003
0.051696558 0.16737305 0.95100003
0.052395303 0.16737305 0.95100003
0.053094044 0.16737305 0.95100003
0.05396248 0.16790104 0.95400006
0.054663427 0.16790104 0.95400006
0.055364374 0.16790104 0.95400006
0.055595171 0.16649306 0.94600004
0.056111734 0.16596508 0.94300002
0.056503408 0.16508509 0.93800002
0.057192601 0.16508509 0.93800002
0.058992527 0.16825303 0.95600003
0.059382737 0.16737305 0.95100003
0.060081478 0.16737305 0.95100003
0.060780223 0.16737305 0.95100003
0.062678099 0.16684507 0.94800007
0.063240938 0.16649306 0.94600004
0.06373325 0.16596508 0.94300002
0.064426117 0.16596508 0.94300002
0.065118983 0.16596508 0.94300002
0.065602481 0.16543709 0.94000006
0.066293143 0.16543709 0.94000006
0.066271208 0.16367711 0.93000007
0.067890443 0.16596508 0.94300002
0.06858331 0.16596508 0.94300002
0.069496565 0.16649306 0.94600004
0.070191637 0.16649306 0.94600004
